# 3D point list with one line of data per point:
#   POINT3D_ID, X, Y, Z, R, G, B, ERROR, TRACK[] as (IMAGE_ID, POINT2D_IDX)
# Number of points: 647, mean track length: 3.53209
135 -0.119132 8.00795 13.4864 33 26 20 0.448637 14 1094 1 1375 2 1045 4 1047
136 0.303089 8.07904 13.0455 49 45 36 0.512638 14 1217 1 1447 15 1375
793 2.59389 7.40308 16.9523 46 78 106 1.56254 14 666 13 1584 3 1813 4 1970 5 1419 9 1399
258 1.93422 8.19772 12.355 31 21 18 0.722156 14 3199 1 4172 15 3615
137 0.846093 8.12157 12.7824 75 68 62 0.622894 14 1300 1 1461 2 1200 3 1254
138 0.865199 8.15286 12.7567 49 42 34 0.368938 14 1318 1 1479 2 1223
268 3.9777 8.05471 13.8951 59 45 44 0.954386 16 2441 1 4421 17 2627
139 -1.6095 7.97567 13.6203 32 29 24 0.994497 14 1069 1 1528 15 1443 2 1019
140 -1.37292 7.96368 13.3834 39 31 28 0.897717 14 1098 1 1545 17 1787 3 969 4 1614
797 2.19916 7.59364 15.1628 185 196 214 0.785035 14 2021 13 1641 3 2429
262 -2.03021 8.00014 13.1443 25 22 19 0.909396 14 2800 1 4209 15 3429 2 2758 13 2223 3 2505 4 2033
141 -1.41633 7.99953 13.2402 68 63 59 1.1575 14 1145 1 1614 2 1097 3 998 4 900
142 -1.50133 8.01387 13.1996 67 63 54 0.697694 14 1157 1 1629 2 1102 3 1005
256 2.06303 8.07753 13.4678 33 19 15 0.882526 16 2356 1 4152 15 3597
143 -1.74825 7.98595 13.1311 100 107 97 0.829893 14 1161 1 1662 15 1556 2 1109 13 1031 3 1001 4 1619
144 -1.74825 7.98595 13.1311 100 107 97 0.829893 14 1160 1 1663 15 1557 2 1110 13 1032 3 1002 4 1620
865 2.17735 7.64494 15.3035 164 181 200 1.35986 14 3492 13 2706 3 2960
266 -0.767382 1.57086 5.2726 37 41 44 0.843184 1 4357 17 2344
145 9.9882 -9.09185 18.8447 249 240 245 1.25563 16 1703 1 2197 15 11 17 1170
146 12.727 -0.0366958 16.6451 69 61 58 0.886271 16 1715 1 2242 15 1818 17 1841
1159 1.69888 -0.22038 13.9347 16 18 17 2.39231 2 3820 5 2034
276 -1.81486 7.95091 13.4433 95 101 99 1.52114 14 3148 1 4468 13 2615 4 2257
147 12.5655 -0.0360657 17.066 103 97 91 1.99287 16 79 1 2243 15 98
148 12.7073 0.0551648 16.6046 156 147 142 0.579361 16 1098 1 2244 15 1821
869 -2.92443 0.976352 7.7394 95 90 84 1.15082 2 3490 13 2752 3 3149
270 4.28392 8.11976 13.6308 40 41 35 1.66631 14 3616 16 2343 1 4424 17 2404 2 3459 3 3213
149 3.56112 -0.166379 15.1314 172 169 164 0.933513 16 1720 1 2248 15 111 17 122 2 1574 3 1520
150 4.07437 0.329547 14.7755 184 158 152 0.682561 1 2257 17 138 15 2717
264 10.1478 -9.11644 18.6471 149 141 130 1.00493 16 2052 1 4257 15 3156 17 2219
151 4.63285 0.492277 13.2893 8 6 7 0.851453 16 1116 1 2270 15 150 14 142 2 151
152 5.11186 0.799255 12.2087 96 80 69 0.25099 16 1144 1 2305 15 1887
873 -0.248938 1.57799 5.78097 123 95 73 0.531766 14 3663 13 2857 3 3251
274 1.87657 8.17097 12.5422 37 22 19 1.15535 14 3389 1 4450 15 3772 3 3118
153 5.81139 0.890953 11.8344 133 119 120 0.633735 16 146 1 2313 15 200
154 5.10169 0.832238 12.1527 121 109 113 0.809532 14 1661 1 2315 13 1322
1167 0.546468 1.8717 5.37294 35 35 37 1.03633 4 1418 9 1355 5 526
284 5.76126 7.93307 14.8989 99 99 99 1.0544 14 3604 16 2432 1 4603 14 3501 15 3737 17 2611 2 3530 13 2813
155 5.06199 0.870092 12.1415 9 4 1 0.626065 16 1742 1 2319 15 2743 17 1228
156 2.81899 0.673113 12.011 8 7 8 1.48262 16 1168 1 2328 15 2757 13 1303 4 1855 5 284 3 1577
877 1.9634 7.33444 15.3009 88 93 97 1.42244 2 3525 13 2875 3 3263 4 2715 5 1917
1153 0.100977 7.41832 14.1673 88 82 79 0.611492 4 2673 5 1877 9 1912
278 9.87227 -5.56261 19.3044 56 55 61 1.20428 16 2245 1 4502 15 3642 17 2495
157 5.87696 1.00188 11.8367 180 152 128 0.851812 16 1157 1 2334 15 2754 17 191
158 -3.08002 0.628921 8.40395 29 28 26 0.606056 16 1795 1 2398 15 1990 17 1901
272 4.60386 8.13837 13.3142 31 30 25 0.546128 16 2344 1 4428 17 2628 2 3461
159 -1.14628 0.934145 10.1294 93 82 80 1.26169 16 1209 1 2402 15 315
160 -1.15166 0.949471 10.0557 175 174 179 0.840399 16 1213 1 2404 15 1966 17 315
817 -0.139269 1.37882 5.77687 161 135 104 0.310896 14 3007 13 2029 3 2693
161 -1.08076 1.06687 9.53538 115 88 61 2.2199 16 313 1 2430 15 2784
976 2.737 -0.0264177 14.8196 195 190 184 1.30591 13 1245 3 2183 5 805
162 -3.5309 0.718737 8.71325 38 42 43 0.722989 14 254 1 2432 15 394
1111 -0.924506 0.812652 11.4004 98 84 75 0.98207 4 316 5 896 9 875
292 1.82709 0.57807 13.065 168 142 114 1.15624 16 2480 1 4683
163 -2.8804 0.995334 7.75176 5 5 9 1.04197 16 1847 1 2493 15 2824
164 -2.92364 1.02403 7.64741 0 1 2 0.163664 16 1296 1 2513 15 2837
821 0.610932 7.48839 15.6227 78 80 79 0.702851 14 2682 13 2138 3 2762
165 -0.942803 1.63557 5.30739 151 135 115 0.669264 1 2643 15 699
980 3.46517 0.789068 11.8343 52 54 56 0.794306 13 1961 3 2244 9 1313
166 4.40214 7.14913 14.4482 79 83 86 1.87154 16 1429 1 2727 17 1513
167 2.38033 7.44071 16.5323 45 40 37 1.1659 14 2659 1 2730 2 2622
168 7.44699 8.07292 14.629 83 78 72 0.707941 14 2728 16 1427 1 2741
825 1.53592 7.4701 14.8695 59 75 100 0.721037 2 2663 13 2158 3 2419 4 2251 5 1452
290 4.6925 0.536856 13.2881 21 17 14 1.9752 14 3637 1 4680 15 3900 2 3557 13 2831 3 3295 5 1939 9 1932
169 7.85212 8.12915 14.3598 101 89 74 1.32947 16 1937 1 2744 15 786 17 1503
984 2.92249 6.81561 18.2359 112 107 104 1.27263 14 594 3 2355 5 1605
170 7.61934 8.18813 14.0709 99 87 73 0.972497 16 1442 1 2756 15 802
1119 1.88917 0.0393461 15.171 151 147 144 1.65951 4 1803 5 1219 9 1457
300 9.6195 -10.1905 18.7421 255 255 255 1.54037 16 2596 1 4821 17 3041
171 6.60554 8.09201 14.435 107 93 82 0.835762 14 2112 16 1451 1 2760 15 2278
172 6.49488 8.06348 14.2966 151 147 145 0.933369 14 2120 16 1456 1 2763 15 2280 17 707
829 2.4138 8.00945 13.9109 54 38 38 0.73483 14 2757 13 2222 3 2523
1105 2.63454 7.25914 16.994 104 114 126 0.589546 4 1484 5 633 9 1127
294 3.42412 -0.342228 15.1612 68 105 28 0.850118 14 3715 1 4768 15 3893 2 3639 13 2897 3 3289
173 6.9965 8.12268 14.0618 151 151 149 0.507967 14 2759 16 1455 1 2768 17 1522
988 1.77331 7.38273 14.816 124 131 139 0.795207 2 2655 3 2414 5 1454 4 2009
174 5.016 8.02341 14.6811 89 83 77 1.13508 16 1487 1 2780 17 740
288 12.6934 0.00327301 16.4608 62 57 54 1.18259 16 2466 1 4673 15 3798 17 2844
175 6.80964 8.18904 13.6425 107 88 63 0.683646 14 2793 16 1481 1 2790 17 1534
176 5.45734 8.09875 14.278 110 102 92 1.03892 16 1498 1 2792 17 741
769 3.48517 8.06927 13.8544 58 49 42 1.22662 2 2117 14 1058 13 1077
298 2.86804 0.279345 14.7246 203 186 129 1.40727 16 2472 1 4773 17 2854
177 2.67692 7.91094 14.7365 61 56 52 0.656472 14 2064 16 1534 1 2807 2 2022 13 1695
178 3.89956 8.05611 13.7608 37 15 21 0.675324 16 1977 1 2820 17 1574 2 2121 13 1832
308 2.75833 7.8812 14.7185 49 41 38 1.61599 16 2670 1 4918
179 4.0902 8.10504 13.5464 68 63 58 0.581301 16 1556 1 2825 15 930 17 1578
180 4.21868 8.13592 13.3783 55 51 45 0.630686 16 1562 1 2836 15 2360 2 2158 14 1163 3 2109
773 -0.94213 8.0435 12.872 91 82 77 0.790232 14 1248 13 1121 4 1724
1113 -2.92854 0.974539 7.8971 121 114 103 1.55768 4 331 5 948 9 891
302 9.92084 -9.20199 18.7296 144 139 137 1.11027 16 2539 1 4823 15 3953 17 2938
181 2.83099 8.03291 13.9618 35 24 22 0.741074 16 1574 1 2838 15 2361
182 2.91489 8.06224 13.7186 77 68 63 0.583673 14 2162 16 1599 1 2850 15 2369 2 2131 3 2551
296 3.49956 -0.108905 15.0979 231 222 213 0.831424 14 3717 1 4770 15 3895 2 3641 13 2898 3 3290 5 1935
183 4.24815 8.19193 13.0055 67 58 49 1.12755 14 2820 1 2855 15 2381
184 4.32468 8.2045 12.8406 74 63 57 0.409235 14 2281 16 843 1 2864 15 1034
777 2.5753 0.197707 15.7059 140 130 121 1.10037 14 1568 13 1257 3 1529
306 -4.14951 0.743135 7.3371 161 173 189 1.43087 16 2615 1 4841 17 3009
185 5.32327 8.35572 12.2502 128 118 106 1.52338 14 2894 16 1605 1 2876 15 2415
186 5.27491 8.34075 12.1689 83 69 58 1.10615 16 2007 1 2881 15 2419 17 812
316 -1.94343 1.19189 6.94518 28 28 29 1.10221 16 2731 1 5011 17 3137
187 2.05889 8.05376 13.331 103 41 60 2.07837 14 2795 1 2891 15 3375 13 2255 3 2831
188 2.58831 8.14121 12.9801 48 41 33 0.47649 14 2257 1 2906 2 2202
781 -0.93932 0.892307 11.3379 169 152 142 0.727219 14 2466 13 1326 3 1608 9 1273
310 9.92017 -11.0568 20.0735 177 183 205 1.18535 1 4933 17 3080
189 1.98181 8.07599 13.1376 102 45 62 1.24916 14 2805 16 1678 1 2911 3 2837
190 0.279124 7.9924 13.6583 70 63 57 0.514848 14 2161 1 2928 2 2135 13 980
304 9.89554 -5.67411 19.2138 128 122 122 0.873275 16 2600 1 4825 15 3957 17 2998
191 4.81975 8.39509 11.7001 122 110 97 0.974032 16 1669 1 2940 15 2472 17 1613
192 0.865288 8.0504 13.2903 74 69 63 0.830363 14 2207 1 2942 2 2173 13 1825 3 2009
849 1.88701 0.0458502 14.0531 27 26 24 0.739703 2 3188 13 2526 3 2877
378 0.582567 8.18303 12.5225 43 38 34 0.314267 14 1392 15 1496 2 1298
193 4.77938 8.40637 11.7076 72 60 48 1.07081 16 1674 1 2945 17 1617
194 4.77938 8.40637 11.7076 72 60 48 1.07081 16 1673 1 2946 17 1618
324 3.31009 -0.171595 15.1933 182 178 169 1.33416 1 2249 15 113 13 68 5 798
195 2.8764 8.22782 12.4174 51 42 35 0.777868 14 2333 1 2947 15 2478 17 1662
196 0.878392 8.07559 13.2558 38 33 27 0.362253 14 2214 1 2949 15 2480 13 1836
853 1.97473 7.95107 14.1967 52 44 41 0.224793 14 3129 13 2612 3 2990
382 -1.72353 8.01465 13.1134 50 43 41 0.794978 1 3090 15 1573 3 1012
197 0.974076 8.07976 13.1513 60 53 47 0.274054 14 2229 1 2956 13 1854
198 0.0448612 8.04422 13.2315 47 39 33 0.918992 14 2211 1 2997 2 1099 4 2101
376 2.02022 8.25522 12.0829 66 58 55 0.705327 1 1529 15 1453 2 2327
199 0.692474 8.11497 12.8745 38 33 27 0.664843 14 2260 1 3007 2 2221 3 2059
200 -0.281595 8.03719 13.2385 70 63 57 0.638874 14 2797 1 3008 15 2532 2 2747 13 2241 3 2528
857 -0.960974 0.791768 11.3187 177 185 194 0.966678 14 3415 13 2651 3 3047 4 2484 5 1764 9 1743
322 9.1541 -11.04 20.9286 159 165 181 0.814246 16 2752 1 5054 15 4149
201 0.00582175 8.0931 12.94 70 63 57 0.991875 14 2253 1 3020 15 1442 17 2177 2 1156
202 -0.353425 8.09467 12.875 68 60 57 0.715287 14 2258 1 3047 15 2581 2 2222 13 1865 3 2028 4 1763
332 -3.99278 0.694987 7.37401 4 6 5 1.30091 1 330 15 461 2 225
203 -1.66585 7.9767 13.3425 38 33 27 0.536252 14 2190 1 3051 2 2165 13 1762 3 965
204 -1.83909 7.96715 13.3474 19 18 14 0.673048 14 1104 1 3057 15 2595 2 1075 13 967 3 950 4 843
326 3.35712 0.123452 15.0241 89 100 22 0.667335 16 106 15 120 17 129 2 117
205 -1.6191 8.00086 13.16 75 70 64 1.12975 14 2212 1 3067 2 2184
206 0.40383 8.20084 12.2883 45 38 30 1.31004 14 2347 1 3086 15 2614
320 -1.00163 1.53821 5.34217 5 5 3 1.47771 16 2747 1 5048
207 9.49675 -9.71055 18.8987 170 156 154 1.37205 16 1698 1 3325 15 2686 17 1166
208 9.49675 -9.71055 18.8987 170 156 154 1.37205 16 1697 1 3326 15 2687 17 1167
929 1.74201 7.12867 15.2098 30 25 21 0.792127 13 681 3 695 4 1516
330 -1.53373 0.935732 10.1467 2 8 4 0.780987 16 300 15 334 17 327
209 10.0701 -9.09724 18.7109 255 255 235 0.922953 16 1702 1 3332 15 1792 17 1822
210 10.3345 -7.56004 17.6724 255 242 223 0.875617 16 2055 1 3338 17 2220
340 6.46202 8.15285 13.8413 120 103 93 1.07296 14 2171 16 681 15 833 17 724
549 4.72406 7.8992 15.1625 61 53 50 0.291824 14 822 2 747 13 848
211 12.8382 0.107613 16.2424 147 139 134 0.64819 16 1716 1 3363 17 1197
212 4.71035 0.619745 13.3301 25 18 12 0.851512 14 2433 1 3384 2 2426 13 1943 3 2227
933 1.60669 7.21816 15.0092 61 76 94 0.780579 13 704 3 708 5 677
334 5.82846 7.92056 14.9493 96 95 100 1.21332 14 2050 16 625 15 788
213 2.83872 0.623424 11.9766 127 32 40 1.15371 14 2444 16 1162 1 3392 15 2752 2 2428 13 2329 4 2149 5 1538
214 2.83837 0.623512 11.9772 127 32 40 1.10075 14 2443 16 1163 1 3393 15 2751 13 2328 2 2894 4 2150 5 1539
328 5.87937 0.893853 11.8381 111 99 101 0.283524 16 140 15 197 17 165
215 2.54041 0.620716 12.5347 10 10 9 1.52501 16 2104 1 3401 2 2896
216 3.29997 0.969565 10.9896 134 115 108 1.31366 16 1182 1 3407 15 2760
937 0.436181 7.48176 14.3827 75 65 63 0.440825 13 784 3 782 4 1558
338 7.64873 8.17114 13.8663 78 69 62 0.295004 1 834 16 630 15 807
217 -1.38686 0.971639 9.79181 104 101 85 2.18817 16 1221 1 3437 17 334
218 -1.19879 1.02917 9.93037 152 130 107 1.87369 14 3264 1 3439 13 2349
348 3.93404 8.14591 13.242 75 67 61 0.47324 14 1195 16 811 15 998 2 1094
557 1.50094 7.91791 14.3837 47 37 34 0.606444 15 966 2 861 13 883
219 -1.03575 1.06792 10.1583 124 94 68 0.787704 16 1796 1 3440
220 -3.99669 0.681005 7.4226 61 55 55 1.18733 16 1254 1 3445 15 2815 17 1936
941 0.323211 7.93281 14.0449 101 94 88 0.332534 13 904 3 920 4 956
342 2.36244 7.9662 14.2327 45 37 34 0.624034 1 1032 16 802 15 934 3 990
221 -1.88986 1.10359 6.91593 154 127 97 0.425267 16 2276 1 3464 17 2553
222 7.75976 8.09423 14.0439 49 39 37 0.825727 16 2335 1 3593 15 2932
336 5.77149 7.99867 14.9182 97 96 102 0.654569 14 861 16 636 15 795 2 781
545 1.60093 7.32862 14.9 14 39 71 0.906403 14 767 2 706 4 788 9 731
223 7.60892 8.16164 14.1101 104 88 73 0.69339 16 1940 1 3597 15 2934
224 7.62652 8.22436 13.6744 116 104 92 0.864906 16 1946 1 3611 15 2942 17 1519
881 -1.25502 0.920289 10.1836 89 79 73 1.30806 14 3734 13 2910
282 7.71629 8.17761 14.4255 121 103 89 0.798698 16 2431 1 4601 17 2604
225 4.77421 7.94382 14.7673 84 81 72 1.17981 16 1483 1 3612 17 1553
226 7.46076 8.24347 13.6306 114 101 86 0.256293 16 1950 1 3620 15 2945
356 3.337 8.10999 13.264 54 45 40 0.459369 16 871 15 1030 2 1086
227 7.14419 8.17704 13.6527 117 101 88 0.986844 16 1951 1 3621 15 2946
228 6.77545 8.14847 13.4901 157 153 153 1.73724 16 2202 1 3637 17 1535
885 3.02623 7.15085 18.3621 61 58 53 1.96653 14 3674 13 2935 3 3324 4 2712
1161 1.63838 7.30288 14.9026 57 93 120 0.817265 1 888 2 698 5 1179 3 1853 4 1553
286 4.4382 8.15487 13.5298 39 38 34 0.954123 14 3617 16 2442 1 4619 17 2786 2 3538
229 6.73528 8.19632 13.5544 156 156 154 0.858589 14 3158 16 2203 1 3641 17 2051
230 6.79543 8.29881 12.9993 140 126 113 0.491771 16 1966 15 2328
280 1.59769 0.618576 13.624 139 115 92 0.515045 16 2484 1 4524 17 2865
231 4.873 8.25981 12.6364 112 100 88 0.613528 14 2849 1 3689 2 2807
232 5.91563 8.39231 12.2512 117 104 94 1.9737 14 3219 16 1996 1 3691 17 1577
889 1.68711 0.601214 13.3698 1 1 0 1.95771 2 3652 13 2963 3 3347 4 2739
354 3.21793 8.10849 13.371 42 31 29 0.97946 1 1116 15 1018 17 829 13 1877
233 5.81162 8.38179 12.2419 127 116 104 1.82066 14 3218 1 3692 17 2083
234 1.21222 8.00559 13.7521 39 32 26 0.567331 16 2232 1 3706 2 2125
364 1.06978 8.07072 13.3973 82 74 71 0.684621 14 1131 15 1213 2 1071
235 0.889807 8.03696 13.5641 41 39 31 0.554937 14 2779 1 3731 2 2732
236 1.91078 8.09784 13.0866 22 13 8 0.777409 14 2810 1 3732 15 3383
1169 1.2665 0.193039 13.6086 151 145 138 0.706662 4 2471 9 1720
358 2.21566 8.02033 13.5845 107 45 67 1.69463 14 1087 15 1061 13 1072 3 2010
237 1.93264 8.15152 12.5831 91 49 55 1.07749 14 3194 1 3754 3 2855
238 0.339378 8.14498 12.6056 44 35 28 1.20674 14 2300 1 3797 15 2580 3 2082 2 1268
352 -0.0138244 7.37159 13.8323 48 51 56 1.37839 14 843 16 929 15 1011 13 802 4 1557 5 1185 9 1424
239 -1.58633 7.95725 13.3211 51 44 39 0.950403 14 2189 1 3801 17 2211 2 2741 3 1946
240 9.93526 -5.73579 19.0738 78 81 91 1.03074 16 2058 1 3931 15 3159 17 2227
833 3.98715 8.07611 13.6226 57 50 42 0.766309 14 2780 13 2259 3 2568
362 0.234667 7.95753 13.9385 68 60 57 0.392216 1 1245 14 995 15 1159 2 944
241 12.5934 -0.171751 16.8588 114 109 105 1.15526 16 2068 1 3947 15 2704
242 4.69434 0.399368 13.294 184 173 167 1.1112 16 2074 1 3954 17 1848 2 2875
372 -0.15643 8.0601 13.1606 77 70 64 0.485053 14 1181 15 1403 2 1112 3 1091
243 4.7942 0.573491 13.2707 190 163 110 2.23874 16 2252 1 3968 15 3175 17 2249 3 2893
244 3.50848 0.906704 11.7934 82 73 66 0.886464 16 1764 15 3186 17 1880
837 -1.47609 0.485421 10.5472 116 119 126 0.499532 2 3369 13 2321
1177 -4.14643 0.653917 7.6135 19 19 19 0.938545 5 2036 9 2015
366 3.13965 8.28693 12.2277 78 68 61 0.520059 1 1364 15 1299 2 2307
246 -1.08482 0.950652 10.0825 182 181 189 1.7832 16 1777 1 3987 15 2775 17 1281 2 2453
360 0.501534 7.96758 13.8555 85 75 73 0.51456 1 1237 14 1022 15 1144 3 973
247 -2.95153 1.04407 7.6116 1 1 1 0.556536 16 1871 1 4010 15 3249
248 -3.78501 1.49424 6.51845 55 47 45 1.07968 16 2317 1 4053 17 2356
841 0.358325 1.64275 5.45516 146 121 91 1.3417 2 2955 14 3305 13 2393 3 2709
370 2.27253 8.25358 12.1795 33 22 20 0.505669 1 1468 15 1389 17 975
249 -3.78774 1.49199 6.50907 55 47 45 1.62871 16 2318 1 4054 15 2905 17 2357
250 5.62789 7.85212 14.9842 119 123 127 2.18493 14 3352 16 2189 1 4094 15 2930 17 2037 2 3442 13 2714
380 1.09141 8.24353 11.974 40 32 29 0.62197 1 1676 15 1569 17 1064
251 4.05423 7.45606 14.183 74 69 63 0.923277 16 2339 1 4106 17 2616 2 3061
252 4.19643 8.09514 13.8254 34 29 26 0.999849 16 2212 17 2073 1 4128
845 0.0114442 7.72761 13.7133 113 117 121 1.65525 14 2745 13 2471 3 2796
374 2.26567 8.29779 12.0587 28 18 16 0.632986 1 1519 14 1521 15 1440
253 0.834986 7.87983 14.5649 72 67 61 0.878403 14 3120 1 4139 15 3009 3 2786
254 4.43412 8.17939 12.8503 101 90 78 1.07695 14 3382 16 2001 1 4144 15 3367 17 2089 2 3341
368 3.50203 8.3196 11.9094 95 82 73 0.69198 1 1400 15 1331 17 899 2 2363
255 4.20647 8.241 12.5692 74 64 55 1.25677 14 3196 16 2229 1 4151 15 3374 2 3346
257 0.129976 7.98688 13.6295 62 57 51 0.664437 14 3145 1 4163 2 3104 13 2215 3 2510 15 3057 4 2298
688 -2.59143 5.37279 8.33234 121 122 126 2.32182 14 3517 2 3336 3 2798
259 -1.43979 7.954 13.7452 31 32 27 0.680054 14 3138 1 4177 2 3101 3 2795 4 2422
261 -1.69771 8.01191 13.0072 70 65 59 0.896746 14 2807 1 4206 15 3428 2 2773 13 2239 4 2062
692 2.62207 8.27422 12.1783 79 69 68 0.790229 1 4171 14 3214 2 3355
263 10.1478 -9.11644 18.6471 149 141 130 1.00493 16 2051 1 4256 15 3157 17 2218
265 2.38517 0.678784 13.1419 70 35 32 0.483261 16 2263 1 4280 17 2535
696 3.27378 7.6305 17.48 72 64 61 1.22573 14 3479 2 3428 13 2695 3 3189 4 2611
267 4.1423 7.43672 14.0418 80 79 70 2.33392 1 4409 17 2775 2 3316 3 2985
269 3.69214 8.04832 13.8708 39 27 29 0.385173 14 3367 1 4423 2 3326 13 2723
700 -1.82316 7.91265 13.4031 123 124 128 0.888337 14 3614 2 3540 13 2814
271 4.48466 8.1426 13.4369 47 46 43 0.968162 16 2443 1 4426 15 3752 17 2629 2 3460
273 5.59685 8.33937 12.2424 118 106 94 1.68592 16 2349 1 4437 17 2633
640 1.69157 7.56042 14.8307 101 104 108 0.490277 1 3649 2 2670 13 2167 3 2437 4 2030
275 1.87797 8.17584 12.5513 37 22 19 1.12093 14 3390 1 4451 15 3771 17 2829 3 3119
279 3.5584 -1.33326 26.1253 21 21 21 1.32028 16 2370 1 4508
281 -0.734233 1.60042 5.26541 13 12 11 0.816182 1 4572 15 3720 17 2749
648 3.05729 7.98058 13.8866 56 45 43 1.11102 14 2755 2 2709 13 2230 3 2819
283 4.06265 7.25849 14.1594 60 57 52 1.40795 16 2437 17 2612
285 5.60922 7.96607 14.9296 65 65 65 1.40246 14 3605 16 2435 1 4604 15 3738 17 2771 2 3532 13 2812
652 2.39269 8.08606 13.4056 51 40 34 0.700788 1 3699 2 2738 13 2257
287 5.6723 8.32798 12.5715 95 83 71 1.9239 14 3627 1 4626 15 3760
289 12.7636 0.00330398 16.5311 62 57 54 1.31183 16 2467 1 4674 15 3799
592 3.41417 7.5784 17.3851 48 38 37 0.604679 14 665 2 1911 3 2383
291 1.82709 0.57807 13.065 168 142 114 1.15624 16 2481 1 4682
293 2.46269 7.49017 14.8991 81 83 87 1.48041 14 3598 16 2587 1 4733 13 2879
596 1.72604 7.39853 14.8293 25 32 50 0.694098 1 2793 2 1980 3 2413 2 2656 5 1453
295 3.49767 -0.10754 15.0828 231 222 213 1.03419 14 3716 16 2546 1 4769 15 3894 17 2942 2 3642 13 2899 3 3291
297 3.32436 0.0316754 15.1825 108 119 113 0.642149 16 2547 1 4771 15 3896 2 3555 14 3633 13 2734 3 3218
600 1.52082 7.6571 14.9273 7 17 29 1.13755 15 894 2 1996 13 785 3 796 4 848
299 4.87014 0.644214 13.2993 187 160 107 1.69523 16 2550 1 4774 15 3965
301 9.92084 -9.20199 18.7296 144 139 137 1.11027 16 2540 1 4822 15 3954 17 2939
604 5.81196 7.92606 14.8266 118 114 120 1.52166 14 2060 2 2009 13 1733
303 9.89554 -5.67411 19.2138 128 122 122 0.873275 16 2599 1 4824 15 3956 17 2997
305 12.6333 0.0968076 16.7496 169 158 152 0.546521 16 2601 1 4826 15 3959 17 3000
672 -2.09955 8.00006 13.1505 111 114 119 0.718445 14 3162 2 3122 13 2493
307 -4.05538 0.759177 7.35881 5 7 6 2.05275 14 3737 16 2616 13 2908 1 4842 3 3232 4 2567 5 1891 9 1874
309 3.44893 8.00231 14.1844 62 53 48 1.85675 14 3824 16 2671 17 3027 13 3026 3 3415
676 3.39689 -2.3706 12.4991 177 171 164 1.1629 2 3179 13 2289
311 9.83879 -9.75394 18.6795 143 140 149 2.23518 16 2674 1 4934 15 4048 17 3081
313 10.4269 -7.94908 17.4842 107 107 115 1.10858 16 2675 1 4967 15 4050 17 3083
680 3.29976 0.144439 15.2307 170 156 125 0.814261 1 3953 2 3189 13 2299 3 2619
315 3.03779 7.93962 14.3268 48 42 36 0.875016 16 2721 1 5000
317 -3.08356 1.11713 7.25973 14 13 9 0.526341 1 5028 17 3161
684 5.20473 6.47131 16.0709 32 32 30 1.88092 14 3321 2 3282 3 2369 13 1559
319 -1.01347 1.53606 5.32601 5 5 3 2.74465 16 2746 1 5047 15 4133
321 3.57042 7.49099 14.0323 2 2 2 0.638687 1 5052 17 3168
752 4.64455 7.90095 15.0692 52 43 43 0.517264 2 755 13 855 3 926
323 9.852 -5.49355 19.0221 75 72 72 1.67216 1 3346 15 66 17 1829 16 2060
325 3.35712 0.123452 15.0241 89 100 22 0.667335 16 107 15 119 17 128 2 118
756 1.50094 7.91791 14.3837 48 38 36 0.606444 2 860 15 965 13 884
327 5.33868 0.800601 12.034 211 181 131 0.49375 1 165 14 209 15 173
329 3.43772 0.885513 11.7824 146 144 105 0.837624 14 228 16 228 15 236
760 2.39254 7.99464 14.1622 56 47 40 0.471903 14 969 13 958 3 1010
331 -3.31869 0.64592 8.62858 37 35 36 0.690846 14 244 16 1232 15 375 17 346 2 210
333 -3.97031 0.722412 7.42419 2 2 1 0.851496 1 338 16 378 15 474
764 5.13833 8.03281 14.5287 80 66 63 1.12653 14 931 13 986 3 1081
335 5.77306 7.90065 14.8908 106 107 111 1.19549 1 796 2 2676
337 5.56873 7.9743 14.9361 34 34 32 0.954341 14 2059 16 640 15 798 13 921
704 5.23073 7.48306 15.3098 43 41 42 2.00561 14 3694 13 2880 3 3271
1062 0.204224 1.66329 5.26531 175 143 107 0.891231 3 487 4 1919 5 1046
339 5.93097 8.0634 14.325 77 62 59 1.35634 1 868 14 2116 15 817 2 2059 13 1812
341 6.53536 8.17242 13.7636 18 18 17 1.15139 14 1095 16 684 15 844
708 -2.2562 5.10644 7.97359 114 118 119 1.9158 14 3621 2 3631 3 2793
343 2.94772 8.01111 13.9477 60 38 39 1.22443 1 1039 14 2139 15 939 2 937 3 1991
1060 2.59769 7.31867 16.9809 93 101 104 0.296769 3 646 13 630 4 1488
344 2.66187 8.01006 14.026 47 31 32 1.87885 14 996 15 951 3 1051
553 0.0788578 7.46254 13.824 122 127 133 0.456548 14 870 2 829 13 817 3 1888 4 2010 5 1195
1070 -4.06502 0.756601 7.36804 16 16 16 1.97321 3 3233 4 2566 5 1890 9 1873
345 2.63722 8.02935 13.8003 39 28 24 0.582094 14 1056 15 989 3 2004
712 5.8636 5.95044 14.6253 155 158 168 0.911875 14 3755 2 3683 13 2936
346 2.99294 8.05044 13.642 77 69 64 0.513425 16 831 15 990 17 824
347 1.66284 7.96093 14.2111 60 55 51 0.547377 1 1090 16 1612 15 994 2 2067
349 2.1479 7.99556 13.9794 51 44 38 0.487585 14 2136 15 1001 3 1973
716 4.24879 7.45196 14.0896 75 68 62 2.96831 16 2583 13 2885 3 3333
350 4.32801 8.15593 12.981 69 60 53 1.15443 14 1259 15 1005 3 2165
1068 2.57627 7.1144 17.0247 108 131 151 0.529364 3 2368 13 2105 4 2217
351 5.65977 8.31775 12.4675 95 86 77 0.744642 16 1567 15 1008 17 781
353 0.796302 7.92478 14.4486 41 36 32 0.295387 14 911 15 1014 13 864
656 4.38717 -2.24846 11.2896 155 151 147 1.13148 1 3353 3 2866 13 2287
355 4.02942 8.17274 13.0068 50 41 36 0.576173 1 1122 15 1023 2 2770
357 3.1066 8.15296 13.3624 45 34 30 0.34883 1 1140 16 896 15 1056
660 5.32523 5.68185 15.1197 51 47 46 0.627378 14 3316 2 2994 13 2415
359 2.38181 8.11383 13.3634 74 65 60 0.635421 1 1184 15 1100 2 2168 13 1867 3 2053
361 4.94614 8.34424 11.9867 80 70 61 0.755726 16 938 15 1156 2 1470
363 3.30029 8.23623 12.4568 96 85 79 0.922989 16 1028 15 1207 2 1302
365 0.717527 8.05217 13.3357 79 71 68 0.464315 14 1142 15 1256 13 1080 3 1100
668 6.42848 8.05374 15.0156 125 116 111 1.44859 14 3116 2 3067 13 2486
367 0.675363 8.09512 13.109 37 32 28 0.310006 14 1208 15 1327 2 2193
369 1.40316 8.18242 12.6392 33 28 25 0.453501 1 1443 14 1359 15 1372 2 1251
736 4.31999 0.616391 12.9716 16 11 9 0.899412 14 1620 13 166 3 196
371 2.83055 8.30063 11.9614 49 40 33 0.200683 1 1469 15 1390 17 956
373 2.85332 8.32271 11.834 39 30 23 0.441925 1 1501 15 1429 17 968
740 -4.1012 0.773216 7.3018 0 0 0 1.91784 1 3455 2 1673
375 1.32712 8.205 12.3953 71 65 65 0.686869 1 1524 15 1446 2 1326 3 1438
377 0.448375 8.13974 12.5832 42 34 32 0.617072 14 2302 15 1479 2 2261
744 -0.138273 1.35594 5.78895 11 9 7 1.30368 2 357 14 1813 13 386 3 1721
379 1.10324 8.22201 12.1803 85 78 76 0.747305 1 1623 15 1522 2 2313
381 1.12765 8.24761 11.9776 80 77 76 1.22473 1 1668 15 1570 2 2343
748 1.73586 7.5291 14.8078 46 62 77 0.590972 2 735 13 778 3 783 4 1598
383 -2.13329 8.02942 13.0654 28 26 29 0.882407 1 1759 14 1190 15 1668
384 -0.169908 8.21291 12.0633 82 79 72 0.750994 14 1505 15 1744 3 1421
529 -1.19583 7.97199 13.4093 21 19 7 0.36221 14 2783 17 2480 2 3113 3 2497
386 3.52524 -0.212341 15.1632 184 183 179 1.79021 16 1719 15 1826 17 1845 13 1902 3 2180 5 1212 9 1208
388 13.142 1.56627 16.1142 19 16 19 1.19124 1 2321 15 1854 17 144
533 -1.70757 0.728173 10.1669 116 118 113 2.70436 15 2767 17 2289
390 5.23333 0.818195 12.1513 97 79 71 0.234869 1 2307 15 1890 17 178
392 3.15284 0.575858 11.8857 70 43 45 1.81997 16 174 15 1895 2 1610
537 -3.10679 0.618999 8.40815 5 5 5 1.27148 14 1688 2 207 13 189
394 2.60872 0.657183 13.2587 12 1 2 0.372228 16 221 15 1904 17 1247
396 2.38848 0.77934 12.4761 107 87 84 0.422123 16 233 15 1924 17 256 2 1647
541 -1.40553 1.05598 9.58538 23 39 23 1.36637 14 286 2 271 13 258
398 -2.2366 1.18737 7.70181 36 34 37 0.0156355 16 423 15 2111
399 6.55966 7.98622 15.1965 65 59 53 0.741609 1 2734 15 2265 13 2199
400 6.41333 7.98308 15.1043 58 49 44 1.004 1 2740 16 1430 15 2269
609 5.18261 7.99647 14.7509 101 92 83 0.654322 14 2077 2 2025 13 1745
402 7.02341 8.12022 14.4107 142 140 144 1.50842 14 2747 16 1441 15 2275 17 678
404 6.47693 8.16282 13.9675 115 101 92 0.965211 14 2160 16 1478 15 2290
613 5.93417 8.12519 14.2321 98 81 73 1.22991 14 997 2 2073 13 1834
406 4.23746 8.08137 13.4832 75 47 57 1.56543 1 2822 14 2790 15 2347 17 1571
408 4.51321 8.12652 13.2867 42 38 37 1.24223 14 2802 15 2353 2 2167
617 0.607722 8.04794 13.3 71 61 59 0.612691 14 2205 2 2172 13 1823
410 -0.345413 7.27844 13.9245 57 69 81 1.22364 16 2015 15 2376 17 2112
412 4.43239 8.19305 12.7574 65 50 45 1.3526 14 2839 15 2390 2 2789
621 -1.49472 7.99353 13.2281 46 37 32 0.376055 1 1622 14 2201 2 2178
414 5.32207 8.35379 12.245 118 108 98 1.25875 14 2895 16 1606 15 2416
416 3.87187 8.2302 12.6823 48 39 32 0.200454 16 1629 15 2423 2 2249
1078 0.0396371 7.46191 15.3012 138 137 133 0.759997 3 3327 4 2713 5 1959
417 1.00519 8.01524 13.733 60 55 51 0.472254 1 1222 15 2434 13 1772
720 6.0773 7.87178 14.9824 111 106 112 1.4421 14 3770 2 3743 13 2991
418 2.92386 8.15514 12.8534 80 71 66 0.105015 1 2903 16 2026 15 2438
420 3.49728 8.23751 12.5318 37 26 19 0.374134 1 2914 15 2447 2 2815
565 2.53189 8.03038 13.7921 58 42 42 0.235002 16 861 2 977 3 1094
421 3.97015 8.28766 12.2982 92 79 70 0.603459 16 1658 15 2449 2 3149
724 5.20029 5.37736 15.3119 19 19 19 0.805195 14 3879 2 3806 13 3041
422 1.8947 8.10767 12.99 29 16 14 0.865586 1 2927 14 1236 15 2458
1076 -1.23624 0.929954 10.0186 32 79 55 2.22091 3 3301 4 2695 5 1942 9 1930
423 0.881438 8.08054 13.2615 25 17 14 0.671595 1 2950 15 2481 2 2179 13 1837
424 3.93697 8.32095 11.9525 82 67 60 0.99941 1 1341 16 1688 15 2484 2 2348
569 2.87554 8.07274 13.4861 83 74 69 0.456242 15 1025 2 1038 3 1201
426 3.22669 8.27149 12.2659 87 74 68 0.86898 1 2953 15 2486 17 887 2 2823
428 0.647116 8.13339 12.7919 61 56 53 0.56594 14 2274 15 2553 2 2231
573 1.06592 8.06076 13.379 91 80 74 0.739663 14 1132 15 1214 2 1070 3 1110
430 2.55842 8.35951 11.4801 43 32 30 0.71074 1 3064 15 2604 17 1733
513 3.12887 -0.207368 15.0437 174 171 166 1.42157 1 4827 16 2545 15 3960
432 -0.698205 8.1386 12.6152 44 35 30 0.57488 14 2296 15 2635 2 2810
434 -2.17115 8.0511 13.0388 30 28 29 0.919887 1 3127 15 2656 2 2206
436 3.64897 0.711226 11.9698 146 131 126 1.96547 14 2452 15 2749 3 2654
517 5.79891 0.87075 12.1121 82 64 54 1.12677 14 1674 16 145 17 164
438 4.99913 0.905066 12.0769 167 142 108 0.666175 1 2332 15 2753 2 2439
440 -1.1753 1.60431 5.3193 104 84 63 0.830174 1 3520 15 2896 13 1465
521 -1.45036 7.97555 13.3531 24 21 14 1.52387 1 1566 17 1122 2 1076
442 5.89167 7.52683 15.0412 85 76 79 1.27736 16 1932 15 2926 17 2025 2 2647 14 2019
444 5.5746 7.98386 14.6749 61 56 50 0.683727 14 2721 15 2938 2 2680
525 8.03084 8.42741 12.6263 93 85 74 0.734105 1 3654 15 3341 17 2052
448 0.144092 7.39184 14.0704 54 50 49 1.37176 1 3682 15 3007 17 1628
593 5.20556 7.55971 15.8397 33 34 36 0.773947 14 744 2 1948 13 747 3 779
450 4.35956 8.18427 12.6812 105 67 72 1.62197 14 3192 15 3018 2 2792
452 4.55569 8.27719 12.4005 117 105 93 0.691023 1 2885 14 3205 15 3027 2 3143
597 5.96654 7.46076 14.6922 91 79 91 1.82394 14 2700 2 1983 13 2186
454 0.773822 7.97283 13.8009 41 31 29 1.18397 1 3715 15 3035 3 2507
456 -0.210537 8.03701 13.1425 65 57 53 0.703388 1 3772 15 3080 17 2465
601 4.65329 7.90157 14.938 101 92 87 1.74238 14 2711 2 2001 13 2468
458 4.24527 8.35557 10.8385 93 65 64 1.06216 1 3039 15 3094 17 2436
460 12.8519 0.180565 16.3202 47 46 42 0.544486 1 3948 15 3163 17 1842
605 -0.18532 7.29038 13.7667 120 123 127 0.609784 15 2380 2 2011 3 789 4 1990 5 1445 9 1412
462 13.4004 1.53857 16.6924 109 117 119 1.07478 1 3971 15 3174 17 1855
464 2.49233 0.659154 12.5237 156 131 101 1.21164 14 2442 15 3185 13 1950 3 2232
673 4.55488 8.27827 12.4 122 107 104 0.37382 1 2884 14 3206 2 3144
466 -0.882859 0.799473 11.3106 79 63 49 1.90119 16 2112 15 3193 17 2286 2 3205 14 2459
677 1.89252 -0.102504 13.9697 16 16 16 0.355784 1 3366 2 3183 13 2520
470 5.71115 7.80084 12.6395 19 18 22 0.515008 16 2207 15 3340 17 2060
472 4.28103 8.14894 13.0062 83 72 66 1.45823 16 2220 15 3360 17 2088 2 3333
681 1.51809 0.608541 13.3678 138 112 88 1.39752 14 3410 2 3201 13 2536
474 2.6219 8.27401 12.1777 66 55 49 0.618194 1 4170 14 3213 15 3397 2 3354
476 0.0652473 8.09645 12.9709 37 27 25 0.50572 14 3176 15 3403 2 3130
685 3.84066 7.09266 17.0837 94 100 114 1.53588 14 3325 16 2181 2 3288 13 2583
478 4.33163 8.47577 11.1002 104 93 84 1.63679 1 3794 15 3412 17 2130
480 0.387502 8.14713 12.5625 69 64 62 0.941049 14 3387 15 3415 2 3347 3 3010
625 4.16813 8.27911 12.45 114 99 99 0.533645 14 1437 15 1126 2 2272
482 -1.80612 8.00982 12.9892 36 28 25 0.979166 14 3167 15 3432 2 3128 3 2813 4 2277
484 -2.07338 8.01269 13.0829 35 31 32 1.09946 14 2804 15 3434 2 2766 13 2231 4 2037
629 -2.02298 1.01766 9.74343 76 28 28 1.01495 14 2486 2 2465 13 1363 3 282 4 1320 5 946 9 315
486 13.5331 0.179632 16.4902 80 70 68 0.891622 1 4269 15 3454 17 2716
488 -0.683277 1.58874 5.274 161 140 120 0.535737 14 3303 15 3548
633 5.37473 3.70324 14.8037 46 45 44 1.0133 14 2559 2 2552 13 2395
490 2.4068 7.99844 13.7287 64 47 48 1.04312 14 3511 16 2226 15 3591 17 2414
492 -0.0884871 7.44314 13.6023 49 45 46 1.85676 1 4440 15 3596 17 2663
637 1.69268 7.35994 14.8551 87 102 117 1.22506 1 2788 2 2649 4 2001 5 1447
494 2.75077 8.3203 11.7767 65 55 50 0.472442 1 4184 15 3620 17 2444
496 3.84537 8.5367 10.5719 85 78 72 0.534655 15 3638 17 2458
577 4.7797 8.24465 12.7822 88 73 70 0.538311 14 1351 16 814 2 1208
498 -3.09551 0.713829 8.08558 29 21 19 1.86196 1 4534 15 3677
500 -0.746761 1.69297 5.29905 94 72 51 1.60145 1 4714 15 3726 17 2751
581 3.06553 0.511868 11.986 71 67 68 0.822104 14 1616 2 1600 13 1286
502 4.11217 8.43091 10.9912 96 81 74 0.501026 1 4469 15 3780 17 2825
504 -2.12574 8.01626 12.996 38 36 37 1.56811 1 4647 14 3374 15 3791 13 2617 4 2430
585 -0.930643 0.886868 11.3011 180 162 150 1.34212 1 257 2 1664 13 1325 3 1607 4 1853 3 2247 5 916
506 5.87172 0.938829 11.9659 27 16 10 0.829515 16 2474 15 3811 17 2857
589 5.66266 5.88282 14.7454 136 139 148 0.0913137 14 1933 2 1879 13 2099
510 2.69564 8.34227 11.5484 70 59 53 1.58224 1 4754 15 3883 17 2926
512 2.69018 0.151876 14.7218 138 115 39 1.506 14 3634 16 2470 15 3898 17 2850
516 4.32019 0.741892 11.653 17 13 14 1.30884 14 1648 15 1899
518 3.57738 8.02466 13.9067 47 19 18 1.07989 1 2819 16 1552 17 788 2 2101
519 2.92518 8.26449 12.226 71 65 52 0.844692 14 2365 17 909 2 2302
520 1.05354 8.21951 12.143 65 66 50 0.27614 1 1631 17 1051 2 1415
522 6.4223 8.13229 14.0127 89 78 67 0.177477 16 1953 17 1531 14 3141
523 4.02469 8.17493 13.0005 53 44 35 1.12216 16 2002 17 1595 2 2771
526 3.815 8.03327 13.7862 36 16 11 1.77318 14 2768 17 2079 2 2713 1 2818 13 2246 3 2560
527 4.41176 8.19528 13.1269 30 16 8 2.09204 16 1991 17 2087 2 2761
528 -0.185769 1.40261 5.91035 120 106 71 0.380173 17 2312 3 2692
530 6.66246 8.10465 14.3389 98 94 97 1.17949 14 3612 16 2436 17 2770
531 5.14175 7.89075 12.5661 0 1 0 0.0503072 15 4137 17 3157
532 10.1126 -9.2664 18.6398 254 255 254 1.54417 1 4668 15 3795 17 2710 16 2365 1 4501 15 3641
534 3.39635 0.241181 15.0464 155 141 106 0.290033 15 132 2 130 3 133
535 2.45081 0.205396 15.4365 133 123 122 0.972732 14 99 2 133 13 86
536 4.26125 0.319299 13.6357 44 41 36 0.445243 14 115 15 124 2 135
538 4.31317 0.927312 11.687 91 74 68 1.76306 14 1687 2 218 13 1350 3 269 5 388 9 501
539 -2.6386 0.865862 9.2111 107 98 89 0.66539 15 1998 2 239
540 -0.968915 1.04621 9.50019 55 37 35 0.346989 14 288 2 262 13 259 3 299
542 3.89494 5.46056 16.7778 69 70 75 1.44497 14 1876 2 515 13 508
543 6.59072 5.59326 15.1993 175 174 172 0.380188 14 588 2 549 13 563
546 6.57591 7.86375 15.4637 78 77 87 1.18842 14 799 2 721 13 1683
547 1.64853 7.53573 14.8643 49 65 86 0.868891 1 945 2 734 3 1871 4 1591
548 1.62312 7.63072 14.8768 73 77 87 0.459043 1 953 2 742 13 787 4 853
550 5.59564 7.9052 14.9746 63 64 68 1.24887 14 831 2 759 13 893
551 0.0748404 7.42704 13.8588 72 74 86 0.41336 14 857 2 815 13 810
552 0.532204 7.8611 14.642 53 43 42 0.317959 14 862 2 826 3 1893
554 5.67332 8.05563 14.5612 110 99 95 0.629458 14 935 2 841 13 1016
555 5.70076 8.06047 14.5412 90 79 75 0.869957 14 940 2 842 13 1028
556 2.74218 7.94793 14.3837 48 40 37 0.445573 14 929 2 858 13 924
558 -1.88928 7.35629 13.4034 101 102 104 0.494389 15 1282 2 864 5 668
559 5.84748 8.10423 14.4303 140 131 124 1.17334 14 959 2 870 13 1808
560 -0.605977 7.59862 13.5273 66 62 63 0.378141 14 2113 2 900 13 2196
562 0.224657 7.95197 14.0025 47 39 36 0.558699 1 1233 14 978 2 934
563 3.39974 7.99536 13.8655 71 61 57 1.43126 14 1034 2 940 13 1055
564 0.455189 7.96481 13.8199 48 38 36 0.270795 14 1032 2 971 4 1698
566 0.776241 7.99792 13.6879 52 44 41 0.845229 15 1162 17 931 2 993 13 992
567 -1.2415 7.94698 13.5098 79 68 64 0.404719 14 1076 2 1029 4 871
568 -0.00554842 8.00051 13.5193 94 85 80 0.286247 15 2495 2 1032 3 1970
570 1.51616 8.05767 13.4297 50 43 37 0.404688 15 1149 2 1054 3 1123 13 1093
571 0.831107 8.03658 13.419 58 49 44 0.426018 14 1119 2 1057 13 1067
572 -1.65349 7.95437 13.3653 116 115 113 0.384505 15 1492 2 1059 4 851
574 4.06786 8.15381 13.1762 73 63 60 0.29861 14 1215 2 1100 3 2135
575 1.09843 8.10358 13.1353 78 71 65 0.647613 14 1203 15 1273 2 1118
576 -1.30384 8.05052 12.8304 52 43 38 0.44452 14 1258 2 1186 4 1034
578 -1.47173 8.09117 12.6391 96 85 81 0.193069 14 1324 2 1249 13 1171 3 1136
579 1.90428 -4.19231 13.4254 68 65 60 1.43039 14 1537 15 60 2 1545 13 1222
580 3.29939 0.0456985 15.1834 114 119 122 0.441448 14 1560 2 1579 13 1249 5 810
582 4.65077 0.540098 13.2456 5 5 5 0.567289 14 1609 2 1601 3 2220
583 1.75091 0.515107 13.4459 119 69 34 1.28864 14 1600 2 1608 13 1934
584 1.98066 0.83821 12.0321 11 6 3 0.983981 14 214 2 1657 13 203 3 1596 5 937
586 -1.99792 0.992568 9.78469 56 20 24 1.26659 14 275 2 1686 13 243 3 1634
587 -2.92422 0.99927 7.70532 133 128 124 0.567286 14 2509 2 1702 13 1379 3 1652
588 6.54317 3.69593 15.1796 117 116 124 0.233436 14 1820 2 1801 13 449
590 3.55892 7.33085 18.1858 1 0 0 1.19807 14 1939 17 1493 2 1891
591 5.95387 6.10623 14.4881 140 134 135 0.669455 14 1953 2 1893 13 1582
594 1.63584 7.17492 15.1783 20 28 51 1.91871 1 826 2 1950 13 1610 3 1842 4 725 5 1150 9 1410
595 1.6512 7.20934 15.0083 27 52 82 0.87501 1 2772 2 1957 13 1613 3 1847 4 1987 5 1439 9 1422
598 1.70608 7.62749 14.8484 58 62 73 0.581099 1 2802 2 1994 13 1650
599 5.19994 7.90503 15.2188 77 74 69 1.75252 1 2749 14 2040 2 1995
602 4.91842 7.95453 14.9707 73 65 62 0.700788 14 2054 2 2004 13 1709 16 664 3 1950
603 4.96564 7.95056 14.9384 97 90 84 0.691586 1 837 14 2055 2 2007
606 0.72411 7.84699 14.8605 89 82 76 0.813535 14 2047 2 2013 4 1593
607 5.67409 7.98097 14.8173 64 56 54 1.04651 14 2068 2 2015 13 1742
608 5.04348 8.01505 14.8107 100 92 89 1.32271 14 880 2 2023 13 1738
610 -0.96461 7.88582 14.2239 30 26 25 1.19245 17 1004 2 2068 13 845 3 1898
611 3.37612 8.01811 14.1755 75 68 62 0.429781 14 2123 2 2069 16 1543 3 2525
612 3.37612 8.01811 14.1755 75 68 62 0.429781 14 2124 16 1542 2 2070 3 2526
614 3.48927 8.05901 14.0059 46 29 29 1.06252 14 2141 2 2094 13 1802 3 2008
615 2.74827 8.01809 13.9559 48 28 30 0.487717 14 1018 2 2098 13 1030 3 1073
616 -1.30011 7.93187 13.8995 22 21 19 0.362531 14 992 2 2115 4 1582
618 4.64862 8.17016 13.2484 58 56 52 1.93416 15 940 2 2175 3 2144
619 -1.20545 8.01922 13.2632 49 38 34 0.340465 14 2204 2 2176 3 1967
620 -1.20545 8.01922 13.2632 49 38 34 0.340465 14 2203 2 2177 3 1968
622 4.42153 8.14166 13.004 113 56 75 0.831171 1 1075 2 2191 3 2607
623 4.67059 8.20501 12.9847 31 27 26 0.795014 1 2849 16 797 2 2203
624 3.86577 8.21531 12.6579 52 42 33 0.501242 1 2886 14 1367 2 2250
626 0.438077 8.19412 12.31 88 81 72 0.550315 15 2610 2 2290 3 2596
627 2.60644 8.2765 11.919 64 54 51 1.66753 1 1494 15 2559 2 2352
628 2.00051 -4.29728 13.4475 48 43 40 2.4051 1 2216 14 2904 2 2385
630 -1.36543 1.04037 9.72519 40 41 28 0.595525 14 2489 2 2466 13 1981 3 2261 4 1878 5 1317 9 946
631 -2.87814 0.999029 7.81313 5 4 9 0.670201 14 2507 2 2478 13 1992 3 2264
632 -2.92584 1.02185 7.6581 1 1 3 0.238868 14 2511 2 2483 13 1381 3 1655
634 5.36941 5.07303 15.3626 78 69 59 1.58323 14 2590 2 2573 13 2072
635 5.13614 5.29732 15.8383 64 55 52 0.936633 2 2577 13 2079 3 2344
636 0.612314 7.48198 15.6049 68 68 70 0.863915 14 2683 2 2640 13 2139 3 2761
638 1.59469 7.3755 14.8805 106 112 118 0.89437 1 3633 2 2650 13 2148 3 2408 4 2243 5 1446
639 1.71932 7.44388 14.8241 23 34 53 1.02745 1 2796 2 2662 13 2159 3 2420 4 2016
641 6.21205 8.02137 15.0459 88 79 75 0.778315 14 2713 2 2677 13 2479
642 5.33746 7.96669 14.9565 108 98 92 0.64324 14 2057 2 2678 13 1721
644 -0.13461 7.37918 13.7924 0 0 0 0.961508 1 2856 17 2426
645 0.153594 7.52555 13.9189 109 116 124 0.563728 14 2071 2 2682 13 2184 3 2457
646 5.30019 8.04679 14.5306 101 94 88 0.504594 14 2731 2 2685 13 2220
647 -0.898934 7.86235 14.2508 36 32 31 0.518155 14 2727 2 2693 13 1679 3 1894
649 -1.48795 7.94097 13.7641 117 120 122 0.605686 14 2758 2 2715 3 1912
650 -0.241082 7.92858 13.6533 45 38 34 0.722276 14 2763 2 2718 3 2494 4 2287
651 0.889299 8.03403 13.5628 55 45 43 0.696473 14 2778 2 2731 13 2234
653 2.395 8.08877 13.416 51 40 34 1.1945 16 2018 2 2739 13 2256
654 4.71597 8.14369 13.1431 50 49 44 0.96046 14 2812 2 2750 3 2860
655 -1.9582 8.0713 12.5349 90 78 75 1.00667 14 2294 2 2812 4 1686
657 3.57421 -0.10518 15.1241 234 229 224 0.748566 14 2912 2 2866 13 2294
658 4.67865 0.462332 13.3161 2 2 2 1.08265 1 3960 2 2877 13 2316 3 2629
661 5.27954 5.90792 14.8995 69 69 71 0.075852 14 2607 2 2995
662 5.91573 6.14586 14.81 77 65 67 1.50415 14 2625 2 3003 13 1574
663 3.3505 7.54097 17.8276 56 46 44 1.25196 14 3059 2 3010 13 2422 3 2739 4 2224
665 5.74367 7.53948 15.0861 44 31 38 0.33483 14 3102 2 3051 13 2596
666 3.5459 7.27924 14.467 90 85 87 1.2922 14 3103 13 2453
667 6.44963 8.02575 15.2115 71 60 57 1.03675 14 3114 2 3064 13 2611
669 -1.54849 7.94771 13.5925 46 42 41 1.12931 14 3143 2 3107 13 2477 3 2800 4 2424
670 -1.69064 7.9508 13.436 35 29 29 0.592015 14 3149 2 3112 13 2484 3 2805 4 2260
671 -1.19704 7.97702 13.4169 55 44 41 0.261174 14 2784 2 3114 3 2496
674 -0.873761 8.1497 12.2466 53 40 32 0.294732 14 3202 2 3152 3 2843
675 4.19745 -2.23527 11.2486 139 135 97 2.19107 16 1712 2 3178 13 2288 3 2867 5 1644
678 1.72181 -0.013678 13.8049 152 154 151 1.24057 14 3230 2 3185 13 2524 3 2875 4 2467
679 1.88474 0.0451899 14.0514 12 14 13 0.895097 14 3233 2 3187 13 2525 3 2876 5 1748
682 -2.88452 1.05467 7.54131 92 88 86 0.411166 14 3275 2 3225
683 5.07649 5.49939 16.0473 57 51 51 1.882 14 3037 2 3272 13 2411 3 2729
686 -0.506584 7.66008 13.2032 98 99 104 1.31086 14 3366 2 3327 3 2988
687 4.84308 8.19069 12.9946 4 6 3 0.951697 14 3379 15 3588 2 3334
689 -1.22802 8.04385 12.9132 61 52 45 1.09602 14 3377 2 3339 3 2996 4 2443
690 -1.22802 8.04385 12.9132 61 52 45 1.09602 14 3376 2 3340 3 2997 4 2444
691 2.94345 8.16952 12.8559 87 76 72 1.19233 17 2418 2 3343 3 3015
693 -1.11812 0.93838 10.1063 184 186 198 0.899663 14 3421 2 3379 13 2657 3 3052
694 5.35596 4.89196 15.0678 52 50 53 0.541531 2 3413 13 2574
695 5.34727 5.07879 15.0876 33 33 34 1.69344 14 3461 2 3417 13 2689
697 2.15021 0.554612 14.1435 189 163 138 1.90765 2 3475 13 2901 3 3294
698 5.6818 5.97538 14.6726 77 74 75 0.169819 14 3475 2 3517 13 2787
699 0.039411 7.47322 13.7052 114 119 125 1.59733 14 3606 2 3534 3 3203 4 2676
701 1.9236 -4.21072 13.3692 27 27 29 1.67828 14 3710 15 3888 2 3551
703 1.12641 7.57845 16.0033 53 49 48 2.41617 2 3613 13 2873 3 3262
705 5.80512 7.61505 15.0588 47 41 49 0.91704 14 3696 2 3619 13 2947
706 5.80512 7.61505 15.0588 47 41 49 0.91704 14 3697 2 3620 13 2948
707 -2.2562 5.10644 7.97359 114 118 119 1.9158 14 3620 2 3630 3 2794
711 5.8909 3.96812 14.323 151 157 169 1.20517 14 3664 2 3673 13 2930
713 5.77578 6.20555 14.7313 70 61 62 1.92924 14 3759 2 3687 13 2872
714 0.634026 7.22177 15.6222 87 85 90 1.83113 14 3763 13 2939 3 3325 4 2744
715 1.69506 7.86957 15.1132 13 17 18 1.01493 1 4808 2 3696 13 2881 3 3331
717 -0.101268 7.31159 13.8894 122 125 132 0.0678505 14 3769 2 3698
718 5.83784 5.52146 14.9297 125 124 129 2.25466 14 3808 2 3734 13 3016
1069 2.14095 1.85417 7.47006 30 30 36 0.824733 3 2315 4 2385 5 1368 9 1558
719 6.0773 7.87178 14.9824 111 106 112 1.4421 14 3771 2 3742 13 2992
722 1.99264 7.34542 15.9789 9 9 9 1.20735 1 4915 2 3782 3 3410 13 3019
723 -2.33846 0.649996 9.25741 111 111 111 0.126279 2 3792 3 3396
726 -3.06504 1.1515 7.66608 36 27 22 0.267936 14 3907 13 3058
1077 -1.22575 0.931745 9.99808 32 79 55 2.40946 3 3302 4 2696
727 -3.07979 1.15408 7.69267 36 27 22 1.76198 14 3906 2 3843 13 3059
730 -1.82468 1.5835 5.4959 146 114 85 0.978341 15 3294 2 3249
731 -2.90911 -3.68155 8.11525 1 1 3 1.81016 14 1533 13 2 3 1493
733 2.50413 0.175375 15.6199 211 198 190 1.00641 14 94 13 82 3 1528
734 2.4117 0.299433 15.3982 183 175 153 0.878309 14 109 13 102 3 141
1085 -4.26275 0.642121 7.34441 165 161 150 0.326932 3 3352 5 1938
735 2.25757 0.48206 14.4429 166 145 131 0.327343 14 131 13 125 3 166
737 -0.945496 0.729846 11.341 45 40 45 0.65867 14 1654 13 185 3 1582 4 1286 5 887
738 4.35008 0.740294 12.581 110 109 115 1.27968 14 193 13 186 3 223
739 2.17864 0.760071 12.209 173 151 129 0.875816 14 200 13 188 3 227
741 -1.08048 0.971356 10.0198 200 197 204 2.93471 14 1704 13 240
742 -2.0505 1.05328 9.76827 157 127 101 0.991032 14 284 13 253 3 288 5 328
743 0.10716 1.24131 6.1762 82 67 59 0.810808 14 409 13 361 3 391
745 1.75351 7.19269 15.0177 62 87 117 0.513 2 683 13 702 3 704 4 748 5 678 9 1164
746 1.8455 7.1931 14.9868 74 90 113 0.604882 2 685 13 706 3 712 4 1542 5 686
747 2.39795 7.39384 14.9437 1 1 1 1.17906 1 855 13 752 3 1865
749 1.73586 7.5291 14.8078 46 62 77 0.590972 2 736 13 779 3 784 4 1597
750 1.60818 7.84242 15.1273 15 17 16 0.166527 1 975 2 753 13 798
751 1.52173 7.86072 14.895 81 76 72 0.603836 2 780 13 816 3 838
753 2.39131 7.94909 14.7606 42 36 30 0.929248 14 869 13 866 4 1739
754 -0.945553 7.89815 14.0383 74 64 62 0.951001 2 912 13 874 3 879
755 2.56795 7.92213 14.6572 47 40 34 0.783133 1 984 13 876 3 914
757 4.88265 7.9453 14.9845 103 96 88 0.630196 14 836 13 889 3 1947
758 0.234605 7.95259 13.9309 91 83 80 0.338709 2 945 14 994 13 933
759 1.06854 7.95542 13.927 49 44 38 0.840566 2 943 13 949 3 979
761 -1.75456 7.94186 13.3526 53 50 52 0.614689 14 2181 13 959 3 943
762 0.17432 7.98784 13.6699 58 50 47 0.602007 15 1226 13 975 4 1700
763 -1.74683 7.9738 13.3015 48 42 42 0.532538 15 2597 13 978 4 854
765 1.12883 8.01957 13.7835 64 57 51 0.73887 14 1055 13 994 3 1031
766 2.80479 8.01254 13.9516 60 31 32 1.33618 14 1014 13 1027 3 1989
767 0.804236 8.02855 13.5152 71 64 58 0.73496 15 1204 13 1053 3 1063
768 0.620821 8.03167 13.4571 61 52 47 0.500804 14 1105 13 1056 3 1065
770 1.03959 8.03766 13.381 62 53 48 0.415444 14 1128 13 1079 3 1103
771 2.07701 8.036 13.458 32 21 17 0.636207 14 1112 13 1100 3 2021
772 -1.36174 8.04167 12.8351 61 52 47 0.535882 14 1251 13 1112 4 1011
774 2.3334 8.08126 13.422 74 64 62 0.1745 2 1055 13 1141 3 1184
775 -1.51082 8.08391 12.5761 69 60 53 0.311128 14 1341 13 1178 4 1064
776 2.45638 8.1197 13.2475 55 48 42 0.577295 14 1183 13 1189 3 2067
778 4.36679 0.563056 13.1636 5 5 4 0.486484 14 1611 13 1290 3 2222
779 3.81169 0.830843 12.1716 184 175 131 2.0546 14 1665 13 1318 3 1600 5 1314 9 1531
780 3.81169 0.830843 12.1716 184 175 131 2.0546 14 1666 13 1319 3 1601 5 1313 9 1532
782 -3.99713 0.720206 7.37135 30 31 33 0.791701 2 2444 14 2484 13 1343 4 1257
783 -4.11755 0.789778 7.30233 58 59 64 1.78848 1 2492 13 1357 3 1619 4 260 14 1718 5 251 9 843
784 -4.11755 0.789305 7.30244 58 59 64 1.549 1 2491 13 1358 3 1620 14 1719
786 -2.71189 0.918514 8.44845 6 5 4 1.56843 14 289 13 1364 3 1633
788 -0.093338 2.10109 5.15014 4 5 7 0.793619 13 1502 3 1764 2 1840
790 2.57802 7.20371 16.9864 89 119 145 0.845945 14 649 13 1569 3 1796 4 1960 5 1412 9 1382
791 2.55275 7.32694 16.9067 6 10 13 1.04573 14 1964 13 1578 3 1810 4 1965 5 1418 9 1395
792 2.55424 7.33532 16.9322 6 10 13 0.42584 14 1965 13 1579 3 1811
794 2.83174 7.59669 17.2927 66 61 57 1.72183 14 1970 13 1589 5 1617 3 2751
1162 -3.12829 0.775323 8.16253 184 169 150 1.30957 4 2762 5 1978 9 1960
795 5.36073 7.19849 15.5757 11 5 9 1.84851 14 2668 13 1616 3 732
796 1.67173 7.47911 14.8391 85 87 95 0.663792 2 1988 13 1639 4 1586 5 1460
798 2.17105 7.6347 15.1697 52 50 48 0.696144 14 2025 13 1643 3 1874
799 5.09475 7.91163 15.2677 56 50 50 0.182213 14 818 13 1687 3 1926
800 2.97594 7.90637 14.8605 55 47 44 0.18939 14 845 16 1528 13 1690
802 5.14999 7.95028 14.7913 113 100 94 0.683765 14 863 13 1731 3 2514
1106 3.36586 -0.157499 15.0991 161 154 134 1.04809 13 1240 5 799 9 781
803 -1.95929 7.99845 13.058 82 74 71 0.799301 2 2196 13 1788 4 1616
804 -1.91521 8.00092 13.0718 48 40 37 0.280314 14 2223 13 1790 3 1962 4 1618
806 3.85863 7.88183 13.7096 54 48 44 1.80009 2 2088 14 1026 13 1804 3 2016
807 -2.3147 8.04637 12.8597 51 47 46 0.606735 14 2256 13 1816 4 2046
808 0.885324 8.08667 12.9909 59 52 46 0.52869 14 1229 13 1872 3 1199
810 4.10749 0.331494 14.8504 180 152 148 0.492902 14 2414 13 1921 3 2203
1114 -1.36191 0.993115 9.68757 9 32 21 0.782785 4 1328 5 951 9 934
811 1.81139 0.561571 13.4617 189 139 79 2.27276 14 1607 13 1935 4 1841
812 4.74389 0.555419 13.2931 14 14 12 0.972298 14 2430 13 1939 3 2221
814 -4.00324 0.750916 7.37635 3 5 4 0.884689 14 2491 13 1969 3 1611
815 -1.83543 1.09405 9.0255 169 158 156 1.26675 14 2971 13 1991 5 1559
816 -1.22078 1.37155 6.78214 19 19 18 1.62518 14 2544 13 2017 3 2686
818 -0.766358 1.64987 5.2477 96 75 56 1.15245 14 2580 13 2053 3 2322 2 2965 4 1394 5 1044
819 2.44606 7.21547 16.9774 65 62 61 0.231272 13 2109 3 2376
820 2.8656 7.66502 16.9291 79 71 68 0.721544 14 2661 13 2128 3 2388 4 2412
822 1.80902 7.24509 14.8951 39 56 82 0.347917 2 2643 13 2146 3 2405 5 1444
823 1.69278 7.35122 14.8524 78 99 121 0.849478 2 2648 13 2149 3 2409 4 2000
824 1.5881 7.44958 14.873 111 116 119 1.01803 1 3644 13 2157 3 2416 4 2248 5 1450
826 2.25803 7.47322 14.8292 48 47 45 1.01401 14 2026 13 2166 3 2436
827 5.21598 7.6767 15.2778 80 84 85 2.54898 1 764 13 2175 3 2789
828 -0.141455 7.3793 13.724 63 58 55 1.258 2 2681 13 2177 3 2777
