# 3D point list with one line of data per point:
#   POINT3D_ID, X, Y, Z, R, G, B, ERROR, TRACK[] as (IMAGE_ID, POINT2D_IDX)
# Number of points: 610, mean track length: 3.82401
4102 4.02544 -1.86059 5.03414 171 169 170 1.71968 2 11964 1 10799 3 8877 7 8667 6 6322
4103 2.41677 -1.86195 5.24195 0 35 70 1.39181 2 11967 1 10695 3 9056 7 8814 6 6324
7611 2.61512 -0.189433 5.62633 41 98 156 0.631509 2 6739 6 1286 8 999
4104 1.29483 -1.87881 5.40104 157 152 148 1.70601 2 11968 1 10697 3 9188 7 8917 6 6327 8 5302
5048 -1.50221 -1.18503 5.93145 111 112 114 0.84053 2 6267 3 6235 4 7294
4105 2.32394 -1.62809 5.31362 172 176 177 1.48887 1 10702 3 9061 7 8817
4106 -0.827111 -1.60267 5.73794 139 137 138 1.43565 2 11971 7 8925 4 9485
6074 -1.00771 -1.44202 5.8019 41 38 46 0.616685 3 4436 7 978 4 6139
4107 1.43856 -1.43199 5.48565 153 149 140 1.28285 2 11973 1 10709 3 9196 7 8820 4 9343 6 6210
5567 -0.0184335 -2.80765 5.31613 116 115 121 0.783346 2 558 3 167 4 92
4108 -0.250848 -1.14136 5.76408 156 156 158 1.11055 2 11975 1 10571 3 9200 6 6213 8 5151
5052 -1.10956 -1.10401 5.89815 20 33 62 0.794172 2 6274 3 6253 7 4397 4 7309
4109 3.32695 -1.05412 5.28273 198 198 198 0.956225 2 11976 1 10717 3 9073 7 8822
5561 -0.0545528 -2.8297 5.31547 100 99 105 0.816203 2 498 3 138 4 65
4110 3.3267 -1.05293 5.27994 198 198 198 1.12395 2 11977 1 10716 7 8823 6 6346
4111 3.22016 -0.945134 5.28842 176 176 178 1.59716 2 11980 1 10814
4992 -0.753287 -1.75953 5.67704 88 92 88 0.903659 2 8272 3 6054 7 4207 4 7134 5 7229
4113 -1.33557 -1.0305 5.95343 57 56 61 1.60566 2 11982 1 10174 6 5413
7565 1.45334 -0.273567 5.81305 0 0 0 0.0568581 2 12221 7 9094
4114 1.93411 -0.954747 5.55776 97 122 56 0.831791 2 11983 1 10723 7 8829
6018 1.35039 -2.58451 5.191 63 60 45 0.659958 2 5427 3 563 7 357
4115 2.22167 -0.810133 5.55596 24 42 14 1.03841 2 11985 1 10727 3 9081 7 8831 6 6232
5511 -0.221841 0.797617 6.3 111 115 116 1.78578 2 11911 3 9136 7 8876
4996 1.30405 -1.81193 5.40512 31 28 35 0.500134 1 7361 3 6066 4 6050 5 5959 6 560
4117 -1.29566 -0.760018 6.00485 60 61 65 2.1153 2 11987 1 10589 3 9296 4 9498 5 9754 6 6227
5505 0.945615 -0.0609923 5.88292 189 185 182 0.77287 2 11878 3 9109 7 8721
4118 -0.721559 -0.728588 5.82533 50 50 52 2.15407 2 11988 3 9211 4 9448
4119 1.01677 -0.730391 5.71932 175 87 86 0.456186 1 10729 3 9209 6 6349
7563 -1.49859 -1.14919 5.92286 95 96 98 2.17843 1 10909 5 9869 6 6520
4120 1.2 -0.609208 5.74529 184 182 183 0.913169 2 11994 1 10592 3 9093 7 8836 6 6234
5000 -0.685322 -1.7208 5.66485 41 44 46 1.1037 1 5439 3 6075 7 4227 4 7151 5 7252 6 598
4121 1.2 -0.609208 5.74529 184 182 183 0.913169 2 11995 1 10593 3 9094 7 8837 6 6235
6026 -0.301883 -2.38386 5.4517 141 140 145 1.00941 2 1230 7 411 4 3840
4123 0.113189 -0.482814 5.88653 74 74 74 0.80656 2 11997 1 10596 3 9217 4 9454
5519 -0.993603 0.178811 6.22008 4 2 3 1.365 2 11884 3 9233 7 8855 4 9466 5 9647
4124 1.62398 -0.467928 5.69905 173 173 175 1.56548 2 11998 1 10736 3 9216 7 8948 6 6355
4125 2.25834 -0.439809 5.64349 167 165 168 1.19367 2 11999 1 10738 3 9095 7 8839 6 6358
5513 0.153382 1.26995 6.3512 197 196 192 1.33325 2 11928 3 9145 4 9416
4126 2.25834 -0.439809 5.64349 167 165 168 1.19367 2 12000 1 10737 3 9096 7 8840 6 6357
4128 2.33298 -0.352925 5.64429 192 178 165 1.14996 2 12002 1 10739 7 8844 6 6359
7517 0.338794 -0.793915 5.84757 19 19 19 1.32418 1 9822 6 5432
4130 3.07837 -0.306348 5.58083 171 171 173 1.34135 3 9219 7 8950 1 10834
6861 -1.51391 -0.415275 6.13307 5 5 13 0.443939 3 2135 4 4921 5 4849
5970 -1.22694 -2.54163 5.53389 135 133 136 0.291919 2 12061 3 9270 6 6190
4131 -0.449663 -0.301085 5.99195 137 137 139 0.647458 2 12005 1 10603 7 8848
6854 -1.04997 -0.460075 6.07716 123 87 39 0.235279 3 2055 4 4887 5 4815
5463 0.571466 1.13246 6.26765 76 104 141 1.25346 2 11549 3 8820 7 8606
4132 2.59754 -0.280988 5.59547 206 205 203 1.15921 2 12006 1 10743
5831 0.993405 -2.67996 5.22471 28 18 19 0.155799 2 7990 3 5903 7 6044 4 5833
4948 0.195266 0.611332 6.17523 61 79 103 0.327457 2 6984 3 5187 7 4949
4133 3.21393 0.0614592 5.6354 77 78 83 1.62073 2 12011 1 10749 3 9104 7 8852 4 9256
5824 0.961864 -2.96362 5.15292 151 149 150 0.869413 1 7113 3 5864 4 5765 6 2615
5457 -0.953222 -0.0975117 6.15298 128 93 39 0.676492 2 11516 3 8781 7 8366 4 9131 5 9366 6 5479
4134 -0.56133 0.113013 6.0889 170 169 167 2.17579 2 12012 1 10748 3 9229 7 8956 4 9463 6 6364
6849 -0.781043 -0.493379 6.01254 114 77 32 1.38496 2 3132 4 4862 5 4760
4135 -1.09599 0.248807 6.23694 159 124 58 2.47076 2 12015 1 10611 3 9315 7 8957 5 9767 6 6252
7515 1.11288 -2.59553 5.21403 43 32 32 1.3988 1 10033 7 8231 6 5297
6858 -0.78767 -0.36069 6.04812 125 93 43 0.528974 3 2143 4 4907 5 4831
4136 -0.143823 0.448039 6.17818 189 189 187 1.75017 2 12018 3 9124 2 11892 7 8859 4 9404
4952 -1.42195 0.471433 6.35602 9 4 8 0.638106 2 3751 3 5202 4 6794 5 6943
4137 3.53516 0.443904 5.71505 201 200 196 0.275518 2 12019 1 10758 7 8856 6 6375
4138 -0.771659 0.467367 6.26672 160 159 157 2.2379 2 12020 1 10613 4 9470 5 9725 6 6255
5839 0.847907 -2.40752 5.31153 101 45 40 0.464663 2 9594 3 5934 6 4026
4956 -1.44345 0.484077 6.36213 152 151 147 0.359616 2 3778 3 5215 4 6796
4141 3.37956 0.542816 5.75354 22 66 114 1.73382 1 10842 3 9115 7 8858 4 9263 5 9356 6 6450 8 5447
5832 2.28377 -2.76791 5.02491 108 92 95 0.911398 1 8331 3 5904 7 6036 4 5861 5 3509 6 3968 8 2232
5465 0.158818 -1.60939 5.60187 158 158 160 0.417746 2 11656 3 8886 7 8671
4142 -0.7683 0.584019 6.3014 0 38 77 1.25517 2 12024 1 10615 7 8966 4 9471 5 9726
4143 0.704783 0.573936 6.11177 0 49 105 1.24333 2 12025 1 10623 3 9239 7 8866
5024 1.66403 -1.54558 5.41059 163 157 157 1.10456 1 7422 3 6143 7 6215 4 6144 6 2911
4145 3.41961 0.659653 5.77707 123 143 167 0.857285 2 12028 1 10765 7 8862 6 6378
7597 1.7241 3.17662 4.6148 202 170 134 1.95303 3 5561 7 5456 6 2044
4146 1.93286 0.688722 5.97422 1 51 114 1.58273 2 12029 1 10762 7 8869 6 6373
6877 -1.5661 -0.334206 6.16444 13 11 17 0.193023 3 2205 4 4996 5 4947
6050 0.144825 -1.68705 5.58127 107 106 111 0.376357 2 5946 3 1083 7 797
4147 2.43578 0.921172 5.97536 5 65 125 1.91545 2 12032 1 10769 7 8875 3 9128 4 9282 6 6382
6870 -1.00224 -0.288877 6.11383 113 80 28 0.262559 2 3332 3 2217 4 4954
4148 3.70708 0.913947 5.80326 26 72 122 1.71571 2 12033 1 10775 6 6385
5847 2.8111 -2.43772 5.02557 172 171 176 0.636979 1 8366 3 5958 7 4024
5028 -1.08144 -1.40214 5.81812 118 113 116 1.06688 2 8370 3 6161 7 4336 4 7225
4149 3.31751 1.16624 5.91399 26 78 135 1.13076 2 12036 1 10777 3 8987 7 8881 6 6387 8 5374
5840 1.01865 -2.41566 5.29152 25 23 24 0.675636 2 8055 3 5935 7 4012 4 5891 5 3549 6 293
5537 -0.937524 -1.72001 5.73128 1 7 19 1.41657 2 12132 3 9335 7 9000 4 9521
4150 3.62367 1.14929 5.86834 2 67 123 0.0803312 2 12037 1 10778
6865 4.01938 0.421494 5.62698 122 126 125 1.55273 3 5030 4 4937 6 1582
4151 -0.627119 1.3508 6.46409 89 90 94 2.52899 2 12038 1 10636
5032 0.483288 -1.36761 5.62306 185 186 190 0.559032 2 8374 3 6173 4 6200 5 6190 1 5553 6 722
6058 0.346342 -1.61192 5.58727 154 155 157 0.225923 3 4341 7 862 4 6104
4155 0.525505 -2.88207 5.22915 147 148 152 0.78973 2 12054 1 10672
5551 -0.0684216 -2.88421 5.30526 100 99 104 0.933337 2 423 3 93 4 23
4156 2.78017 -2.57903 5.00622 171 170 169 0.936934 2 12056 1 10790 3 9039 7 8800 6 6302
5855 1.316 -1.9468 5.3704 161 165 168 0.579981 2 9695 3 6006 7 4156 4 4077 6 2838
5036 -0.917141 -1.31962 5.8269 140 138 138 0.8822 2 8389 3 6199 7 6252 4 8149 5 8257
4157 2.78017 -2.57903 5.00622 171 170 169 0.936934 2 12057 1 10791 3 9040 7 8801 6 6303
5848 1.65286 -2.29105 5.22541 52 49 44 0.907517 1 7231 3 5970 7 4052 2 8085 6 315
5545 -0.50073 0.922737 6.33945 113 115 114 0.239857 2 12200 7 9096
4158 1.06384 -2.64641 5.23284 82 31 28 1.30231 1 10675 6 6181
4160 -1.22694 -2.54163 5.53389 126 126 134 0.291919 2 12060 3 9269 6 6189
5104 2.08123 -0.504079 5.6423 79 63 47 0.5963 1 7710 3 6441 7 4647
4161 3.12729 -2.25395 4.9888 168 167 171 0.384243 1 10678 6 6191
4162 1.18904 -2.16115 5.32871 159 159 159 1.3852 2 12065 1 10694 3 9187 7 8914 6 6315
6130 -1.12966 -0.547431 6.06528 97 75 36 0.389071 3 4875 7 1504 4 6541
4163 1.97104 -2.10736 5.23215 166 166 168 0.706218 2 12066 1 10798 6 6407
5623 -0.366038 -2.47569 5.43255 103 98 104 0.723039 2 1141 3 509 4 3778
4164 2.93755 -2.05572 5.06475 146 150 149 0.747867 2 12068 1 10796
5108 0.272811 -0.563245 5.81267 139 139 137 0.916051 2 8654 3 6450 7 6411 4 7475 5 7646
4165 3.31287 -1.84577 5.12681 171 171 171 1.10159 2 12069 1 10800 7 8815
5617 1.59114 -2.67267 5.14738 170 170 170 0.637011 2 5349 3 481 7 293 6 205
4166 0.0906007 -1.87965 5.54046 139 140 145 1.95937 2 12070 3 9273 7 8915 4 9482
4167 0.0906007 -1.87965 5.54046 139 140 145 1.95937 2 12071 3 9274 7 8916 4 9483
4168 2.51802 -1.7552 5.26168 175 172 168 0.590212 2 12072 1 10801 3 9190 7 8922 6 6411
5112 -0.362795 -0.575474 5.92169 57 56 59 0.63652 2 8649 3 6465 7 4627 6 964
4169 1.51273 -1.71211 5.39807 167 164 157 2.06135 2 12073 1 10805 3 9278 7 8921
4170 1.51273 -1.71211 5.39807 167 164 157 2.06135 2 12074 1 10804 3 9277 7 8920
6138 3.04515 -0.465895 5.52008 177 177 179 0.757864 3 1925 7 1532 6 1162
4171 1.77734 -1.70715 5.3732 177 176 177 1.25075 2 12075 1 10700 3 9192 7 8924 6 6332
5631 0.100052 -2.4973 5.37284 151 150 155 0.570633 2 1096 3 539 4 3812
5116 3.87592 -0.371645 5.40919 202 198 195 0.886511 2 9971 3 6469 7 6484 4 6456
4173 -0.553741 -1.58927 5.6684 140 140 142 1.62078 2 12077 3 9340 7 9002 6 6333 1 10706
5625 0.138016 -2.52348 5.36853 151 151 153 0.685814 2 1039 3 516 4 3797
4174 -0.14163 -1.23332 5.74953 87 100 106 1.80348 2 12079 1 10712 3 9283 7 8929 4 9492 6 6338
4175 -0.14163 -1.23332 5.74953 87 100 106 1.80348 2 12080 1 10713 3 9284 7 8930 4 9491 6 6339
5414 2.89851 -1.43116 5.29101 63 129 151 0.442981 1 10131 3 8464 7 7904 6 5792
5056 -0.855382 -1.03814 5.88776 48 70 101 1.0438 2 8460 3 6271 7 6307 4 7333 5 7525
4177 -1.21401 -1.06032 5.91291 141 140 144 1.05215 2 12084 1 10575 4 9493 5 9750 6 6215
7629 1.94333 -1.68905 5.35034 72 61 22 0.720209 2 5920 1 5359 3 4323 7 811 6 2887 8 387 4 4242 5 4000
5923 -0.4381 -3.09162 5.30339 138 136 142 1.28532 2 10374 3 8343 7 7738 6 119
4178 -1.21719 -1.06098 5.91902 141 140 144 0.485461 2 12085 1 10574 6 6214
6082 0.529522 -1.42014 5.60182 183 186 184 0.174378 3 1409 7 1036 4 4417
4179 2.1744 -0.950057 5.52732 174 168 156 0.945749 2 12087 1 10817 3 9204 7 8937 6 6421
5575 0.0478681 -2.77372 5.31835 100 98 108 0.573995 2 629 3 213 4 143 5 89
4901 0.196398 -0.0797667 5.93648 189 186 175 0.794946 2 3599 3 4978 7 1735 5 4872
4180 2.17438 -0.951632 5.52728 174 168 156 1.34331 2 12088 1 10818 3 9203 7 8938 4 9365 5 9615 6 6422
5060 -1.16312 -1.03306 5.91828 77 96 120 0.931927 2 6291 3 6281 4 7346
5569 0.180018 -2.82486 5.29209 97 98 103 0.636062 2 502 3 176 4 123
4182 1.53047 -0.727943 5.6588 92 13 14 2.77952 2 12091 1 10731 3 9207 7 8941 4 9376 5 9621 6 6351
5412 -1.47566 -1.7392 5.76427 13 16 23 1.1877 2 10537 3 8443 5 9013
4183 1.09883 -0.536497 5.76674 97 97 97 0.754547 2 12093 1 10734 3 9215 7 8946 6 6354
7627 2.59635 -0.29326 5.60508 200 194 194 1.25565 6 6438 8 5498
4905 -0.169111 -0.0998787 6.04827 182 160 98 1.44575 2 3591 3 4988 5 2190
4184 -0.60115 -0.468055 5.90767 138 136 137 0.886247 2 12094 1 10735 3 9306 6 6352
5422 1.11041 -0.597435 5.75032 38 36 41 0.409288 1 9833 2 11475 3 8507 7 8330 6 5450
5064 0.289704 -1.00345 5.7138 155 156 159 0.784591 2 9807 3 6289 7 4443 1 7516 4 7337 5 7519
4185 2.81726 -0.290931 5.59159 183 183 183 1.48032 2 12097 1 10744 3 9220 7 8847 6 6363
7464 -0.316748 -0.853226 5.84623 142 140 141 0.376037 4 7410 6 3010 8 658
6090 -0.849061 -1.33937 5.81585 111 110 118 0.84959 3 4499 7 1084 4 6195 2 6181
4187 0.310719 0.0903078 5.87628 121 116 117 1.58749 2 12103 3 9312 7 9028 4 9504
5583 -0.210658 -2.64465 5.36732 143 143 145 0.90085 2 850 3 278 4 3683
4909 -1.56929 -0.194683 6.1922 137 139 138 0.527614 2 3473 3 4997 4 6676 5 6787
7458 3.43704 -1.85746 5.11189 169 175 174 0.707207 3 992 6 2841 8 294
5068 -0.690836 -0.927777 5.72393 0 7 22 1.92749 2 8492 3 6318 7 4474 8 605
4189 0.149672 0.45347 6.15315 191 191 189 1.62531 2 12105 7 8959 4 9468 6 6367
5577 0.668757 -2.81826 5.23495 142 143 135 0.827034 2 5242 3 235 7 146
4190 2.32089 0.568937 5.90292 1 57 118 1.25657 1 10841 3 9314 7 8961 6 6447 8 5441
5008 -0.589675 -1.68641 5.66196 150 152 156 0.965622 2 8301 3 6096 7 4247 4 7172 5 5942 4 6046 6 614 1 5457 8 425
4193 3.8315 0.910249 5.79301 25 71 121 1.83545 3 9238 4 9274 5 9367
7581 2.44529 -2.0357 5.19904 54 124 146 0.577256 2 8185 3 4165 6 2786 2 8184 1 7286 7 4130 8 247
4194 1.74623 0.948945 6.09653 19 67 115 1.97469 2 12113 1 10843 7 8971 6 6451
6034 1.14143 -2.21489 5.32933 39 33 45 0.517709 2 5659 3 763 7 530
5527 3.21147 -0.931056 5.35276 185 183 184 2.20952 2 12139 3 9287 7 9009
4196 2.17994 1.10085 6.05679 159 164 160 1.44463 2 12117 1 10846 3 9251 7 8974 4 9293 6 6383
5012 1.6486 -1.69333 5.38048 55 43 47 1.46931 1 7387 2 8281 3 6110 7 4262 4 6098 5 6041 6 2883
4197 -0.773112 1.14282 6.43238 7 59 116 1.75901 2 12119 4 9473 6 6374
5521 1.74217 0.9448 6.08429 13 63 114 1.36887 2 12114 3 9248 7 8972
4199 -0.388233 -3.05361 5.33179 128 127 133 0.248924 1 10671 7 8995
7579 1.73499 -2.70336 5.12195 167 167 167 0.560191 4 3864 5 3500 6 2644 2 7981 1 7136 7 3964
4200 3.52662 -1.96251 5.06814 113 132 163 1.19194 2 12130 1 10890 3 9275
5016 -1.13924 -1.59806 5.76257 133 146 163 0.76247 2 8344 3 6118 4 7185
4201 2.96109 -1.64573 5.20798 171 170 168 2.26163 2 12131 1 10802 7 8927
4202 3.91166 -1.49725 5.14036 91 89 92 1.64133 2 12133 1 10900 3 9195 7 9006 6 6517
6042 -0.83431 -1.7251 5.71072 121 125 128 1.23521 3 4269 7 741 4 6011 2 5939 5 7241
4203 -0.389898 -1.4862 5.70422 0 0 2 1.22264 2 12135 1 10809 3 9342 6 6413
5535 -0.0605701 -0.426287 5.93715 65 65 65 0.548033 2 12096 7 9021 4 9502
4204 -0.787973 -0.908794 5.77871 6 18 32 0.0964479 2 12140 1 10726
5020 -1.15 -1.5568 5.7779 98 93 96 1.35231 2 8350 3 6128 7 4286 4 7198
4205 1.78853 -0.851332 5.57924 142 34 34 0.480688 2 12142 3 9291 7 9013
5529 1.78681 -0.851594 5.57262 146 35 41 1.38138 2 12143 3 9290 7 9012 4 9442
4206 2.43847 -0.836986 5.48259 35 63 113 2.22807 2 12144 1 10823 3 9292 7 9014 4 9444 6 6425
4207 1.9044 -0.713167 5.61161 110 106 107 1.08477 2 12145 1 10860 3 9293 7 9016 6 6483
5088 2.4686 -0.684346 5.54476 193 142 144 0.737608 2 9864 3 6400 7 6368 4 6424 5 4555
4209 2.0077 -0.563582 5.63231 184 172 158 1.01335 2 12150 1 10829 3 9300 7 8944 6 6428
4210 2.0088 -0.564362 5.62953 184 172 158 1.80721 2 12151 1 10830 3 9299 7 8945 4 9378 6 6429 8 5427
6114 3.5208 -0.973481 5.33511 66 67 72 0.651555 1 7505 7 1265 4 1505
4211 2.69944 -0.163406 5.60859 26 78 130 0.896015 2 12155 1 10870 6 6487
5607 -0.384004 -2.5189 5.42075 108 106 109 1.24939 2 1068 3 433 4 3747 5 3375
4212 3.19575 -0.15676 5.5412 113 154 193 1.46447 2 12156 1 10873 3 9308 7 9025
5092 -0.98807 -0.715336 6.00041 73 76 81 1.39059 2 6474 3 6414 7 1392 4 7458 5 7638
4213 3.88027 -0.0845809 5.50927 186 186 184 2.10979 2 12157 1 10874
5601 2.66405 -2.84175 4.96833 161 159 162 0.828877 2 5185 3 407 7 198
4214 -0.239667 0.0826814 6.11013 191 191 191 1.14232 2 12161 1 10838 3 9358 7 9067 4 9534 5 9793 6 6441
4215 0.177714 0.262483 6.11036 69 70 74 2.17703 2 12162 1 10877 3 9386 7 9068 4 9535 5 9796
4216 0.175702 0.263438 6.10518 69 70 74 2.09042 2 12163 1 10876 7 9069 4 9536 6 6489
5096 0.16448 -0.622154 5.83863 198 201 201 0.975937 2 8611 3 6424 7 4600 4 7455 5 8378 1 7629 6 3074
4217 3.66614 0.588931 5.75801 20 68 117 1.89969 2 12164 7 9031 4 9393 3 9230
6122 2.02907 -0.746595 5.58673 188 174 164 0.606944 1 5791 7 1380 4 1609 6 949
4219 2.38926 -1.99008 5.18439 52 119 144 2.24355 1 10893 3 9373 6 6510
5615 -0.0158796 -2.52469 5.37837 148 147 152 0.78648 2 1033 3 476 7 338
4220 1.77632 -1.84216 5.35139 17 7 5 1.30189 1 10897 3 9375
5100 1.47044 -0.545924 5.72032 198 194 190 0.512981 1 7672 3 6432 7 6435 6 3161
4221 2.73943 -1.79728 5.21898 107 83 93 0.973391 1 10895 3 9337 7 9052
5609 -0.307328 -2.51894 5.4147 121 118 125 0.701718 2 1070 3 441 4 3760
4222 3.62795 -1.78041 5.0995 57 77 119 1.53197 2 12183 1 10925 3 9338 7 9053 6 6534
4881 -1.54611 -0.335295 6.15428 12 7 13 0.682409 2 3279 3 4938 4 7593
4224 3.73567 -1.60155 5.16725 184 182 183 2.24049 2 12185 1 10898 3 9341 7 9054 6 6516
5398 0.149777 0.0225432 5.97344 198 196 199 0.976307 2 10716 3 8212 7 8039 4 8691 6 4383 1 8814
4225 2.94293 -1.36071 5.29101 47 132 156 1.55021 2 12186 1 10902 7 9055
5907 1.05223 -2.37 5.3022 94 74 50 0.68711 2 10957 3 7952 7 7814
4226 1.16538 -0.804138 5.70209 179 85 83 1.67244 1 10914 3 9383 6 6524
4885 0.342897 -0.144444 5.85133 188 173 166 0.86569 2 3514 3 4951 7 1687 4 6569 5 4837
4228 0.454998 -0.634908 5.76955 40 9 2 1.68144 2 12191 1 10864 3 9348 7 9059 6 6480
4229 0.454998 -0.634908 5.76955 40 9 2 1.68144 2 12192 1 10863 3 9349 7 9060 6 6479
4230 0.259737 -0.545417 5.77504 80 84 84 1.02115 2 12193 1 10865 6 6426
5396 0.263293 0.0275032 5.92122 192 190 190 0.896943 2 10049 3 8210 7 7452 4 8363 5 8481
4231 0.73828 -0.383894 5.84675 15 15 15 1.82989 2 12195 1 10868 7 9065
4889 -1.48374 -0.271405 6.14386 139 143 140 0.806008 2 3356 3 4956 4 6627 5 6737
4232 0.463859 -0.0614131 5.8677 16 16 16 1.00428 2 12197 1 10871 6 6486
5406 0.51207 0.651621 6.15062 150 152 147 1.03995 2 10748 3 8260 7 7488 4 7688 6 3339
5915 3.20022 -2.21626 5.04363 79 80 84 1.24049 2 11353 3 7991 7 8256
4234 1.13706 -2.95415 5.13078 146 146 148 1.94741 2 12204 1 10886 3 9368 7 9078 4 9514 6 6504
7448 -0.0575317 0.592394 6.19985 22 63 120 0.350162 1 6375 6 1489
4235 2.17204 -2.53353 5.10239 14 12 16 1.71224 2 12205 1 10922 3 9370 7 9080 6 6531
4893 -1.59383 -0.266455 6.18095 134 139 133 0.770087 2 3360 3 4963 4 7619
4236 1.48328 -2.4848 5.19079 23 31 41 1.62395 2 12206 1 10923 6 6505
4237 1.93961 -2.06431 5.2495 161 159 163 2.08288 2 12211 7 9046 6 6508
5404 0.740481 0.536444 6.09024 9 55 105 0.555948 2 10739 3 8246 7 8059
4239 2.65429 -1.35017 5.30537 57 138 160 3.15139 2 12214 1 10926
4961 -1.43225 0.50095 6.36508 4 2 7 0.707668 2 3820 3 5227 4 5382 5 5421
4240 3.13309 -1.15868 5.28533 93 94 96 1.58275 2 12216 1 10928 6 6537
5478 -0.0139033 -0.135174 6.00021 194 181 180 0.966975 2 11729 3 8939 7 8717 4 9259 5 9350
4241 3.13309 -1.15868 5.28533 93 94 96 1.58275 2 12217 1 10929 6 6538
4242 2.86736 -0.677854 5.48929 174 174 179 2.04886 2 12219 1 10932 6 6540
4243 4.04117 -0.516528 5.37335 191 189 190 2.37055 2 12220 1 10942
4965 1.74424 0.944516 6.06505 4 60 121 0.987151 1 6556 3 5242 7 5044 6 1626
4244 1.42533 -0.270408 5.81233 164 78 78 0.589214 1 10933 3 9399
4246 1.68956 0.672537 6.00179 0 54 110 1.9159 2 12225 1 10917 3 9387 8 5577
5476 0.469899 -0.247586 5.78883 25 24 19 1.77893 2 11720 3 8931
4247 3.03782 -2.39172 4.98943 160 159 164 2.01801 2 12230 1 10935 6 6558
4969 1.77741 1.00359 6.06795 174 191 211 1.43884 1 6587 2 9117 3 5267 7 1966
5486 3.73092 0.787978 5.75993 27 53 90 1.30506 2 11913 3 8968 7 8747 6 6277
4249 1.73253 -2.74149 5.09292 147 146 149 1.72089 2 12234 1 10947 7 9120 6 6573
5995 0.889548 -2.93914 5.17274 98 27 33 0.911733 2 5175 7 105 4 3651
4250 1.73345 -2.7392 5.0917 147 146 149 1.10116 2 12235 1 10948 6 6574
7528 3.947 -1.16898 5.2191 206 206 208 2.06815 1 10405 2 11437 6 5820
4251 3.93959 -1.17735 5.1828 190 187 190 2.40212 2 12238 1 10952
4973 -1.4522 0.656394 6.40884 39 47 68 0.601704 2 3896 3 5284 4 6824 5 6970
7522 -2.36349 0.397481 6.41844 152 151 149 0.725228 1 9880 6 5497 8 4379
4253 0.637298 -2.79987 5.24486 143 144 146 0.659188 1 626 2 5261 3 245 7 156
4254 1.24164 -2.79291 5.14413 162 163 168 0.724395 1 535 2 5237 3 281 7 179
5484 2.32877 0.436516 5.87877 204 203 199 1.21397 1 10625 3 8957 7 8576 4 8951
4255 1.44959 -2.73607 5.14261 96 97 101 0.572789 1 555 2 5288 3 388
4913 0.00789303 -0.0177089 6.01851 188 175 176 0.64827 2 6828 3 5017 7 1751 4 6634 5 7755
4256 1.44959 -2.73607 5.14261 96 97 101 0.572789 1 554 2 5289 3 389
5430 -0.258344 -0.0339343 6.07366 172 163 161 1.18553 2 11137 3 8550 7 8368 4 8692
5072 0.133493 -0.886126 5.78403 69 71 68 0.526498 2 8519 3 6349 7 6322 4 7387
4257 2.20558 -2.26373 5.16919 133 106 95 0.590691 1 935 2 8089 3 775 4 758
5939 3.29985 -2.07886 5.08165 139 136 129 2.27525 2 11361 3 8426 7 8261 4 8576 6 5728 8 4903
4258 0.744746 -2.05214 5.35001 200 200 198 0.460088 1 1279 2 5768 3 843 7 610
5591 1.39914 -2.78625 5.13749 146 152 168 0.804592 2 5243 3 324 7 182
4917 -0.491006 -0.0416063 6.05713 39 39 55 0.860789 2 3619 3 5023 7 1749 4 5090 5 2434
4260 -1.12004 -1.73196 5.72905 98 103 101 0.825294 2 1827 3 967 4 4073 5 3735
5076 1.92511 -0.805676 5.57969 184 171 157 0.706582 1 7570 3 6366 4 4689 5 4526 6 3044 8 704
4261 -1.12004 -1.73143 5.72913 98 103 101 0.948841 2 1826 3 968 4 4074
5585 -0.378179 -2.62665 5.39239 149 147 149 1.34004 2 895 3 283 7 218 5 3308
4262 -1.06054 -1.71937 5.72682 11 22 42 0.757426 2 1841 3 972 4 6002 5 5882
5428 0.335718 -0.0501824 5.86284 87 54 52 1.18339 2 11132 3 8544 7 8020 4 8944
4263 -1.18946 -1.70722 5.74001 6 12 37 1.11609 2 1860 3 976 4 4080 5 738
4921 -1.04705 -0.0172092 6.1892 110 72 25 0.709327 2 3643 3 5029 7 1777 4 6692 5 6820
4264 -1.11006 -1.70555 5.73451 99 105 112 0.708684 2 1862 3 981 4 4085 5 3752
5438 0.800031 -1.91836 5.4011 0 0 0 2.52174 1 10365 2 11381
5080 0.0612356 -0.844639 5.80353 60 62 61 1.11491 2 8551 3 6378 5 7589
4265 -1.09375 -1.70549 5.73374 104 112 118 0.756662 2 1864 3 983 4 4088 5 3757
5947 2.87029 -2.40363 5.01438 172 171 176 1.95919 2 11618 3 8665 7 8475 4 8818
4266 -1.00028 -1.7084 5.72551 94 96 101 1.11231 2 1856 3 986 7 747 5 3763
7480 3.53605 2.60438 4.28615 168 135 94 2.20933 2 9377 6 3722
6106 -0.742437 -1.03622 5.8708 67 83 109 0.0680543 3 4609 7 1212 4 6305
4267 -1.00028 -1.7084 5.72551 94 96 101 1.11231 2 1857 3 987 7 748 5 3764
5599 2.46909 -2.828 4.9861 120 118 119 0.654329 2 5201 3 391 7 197 4 501 8 21
4925 -0.255292 0.179664 6.11484 200 199 194 0.833768 2 6873 3 5058 7 4804
4268 -0.934548 -1.7092 5.72142 102 110 119 0.76854 2 1852 3 990 4 848 5 3775
7474 3.09725 0.908747 5.88437 222 218 207 0.741444 1 8051 6 3505 8 1282
5084 -1.20461 -0.861504 5.97849 4 16 33 1.24784 2 6412 3 6386 4 8215 5 7606
4269 -0.934548 -1.7092 5.72142 102 110 119 0.76854 2 1853 3 991 4 847 5 3774
5436 1.60901 1.2449 6.163 208 207 203 1.13057 1 9938 3 8605 6 5577
4271 0.126128 -1.74019 5.57817 132 128 134 0.338459 2 1725 3 994 4 876
4865 -1.16039 -0.546483 6.06648 95 61 24 0.684455 2 6602 3 4880 7 1501 4 6544
4272 0.160509 -1.7397 5.5734 101 98 105 0.280402 2 1726 3 996 4 879
5382 -1.49777 -0.416445 6.12493 8 6 11 1.05872 2 8741 3 8164 4 8675 5 8848
4273 0.160505 -1.73991 5.57338 101 98 105 0.320156 2 1727 3 997 4 880 5 812
5891 1.53029 -1.69489 5.39349 161 155 149 0.847654 2 9720 3 7339 7 6182
4274 0.318591 -1.74688 5.55667 107 102 109 0.911455 1 1649 3 1000 7 754
4275 0.318591 -1.74688 5.55667 107 102 109 0.911455 1 1648 3 1001 7 753
4869 -0.278124 -0.372339 5.98275 144 146 145 0.4359 2 6685 3 4897 7 4707
4276 0.538426 -1.74957 5.51815 133 126 133 0.246605 2 1676 3 1009 4 902 5 844
4278 0.585481 -1.74959 5.50673 115 114 120 0.258383 2 1673 3 1011 4 906 5 848
5380 3.74131 -0.155518 5.50843 200 196 193 1.1778 2 11115 3 8160 7 7995 6 5509
4279 0.158814 -1.72489 5.57536 154 154 156 0.335479 2 1772 3 1027 7 763 4 4140
4873 1.24492 -0.223272 5.82613 128 48 51 0.972936 2 6715 3 4908 7 4732
4280 0.206838 -1.72791 5.56806 151 153 156 0.437383 2 1769 3 1028 7 764 4 4142 5 3840
5390 3.81006 0.0549953 5.53446 202 198 195 1.43382 2 11152 3 8187 6 5530
4281 0.298871 -1.73314 5.563 156 156 158 0.434322 1 1690 2 1749 3 1033
5899 2.27109 -2.88496 4.9998 37 47 68 1.46429 2 11307 3 7918 7 7764 4 7973 6 5259 8 4575
4282 0.615691 -1.7376 5.50456 183 187 188 0.211403 2 1684 3 1039 7 760 4 4157
4283 0.357842 -1.72367 5.55946 107 107 109 0.783022 1 1703 2 1773 3 1050 4 4159
4877 -1.49045 -0.361558 6.13296 143 143 141 0.834569 2 3270 3 4926 4 6582 5 6665
4284 0.423442 -1.72532 5.54894 102 97 103 0.309144 2 1764 3 1051 7 781
4285 0.445993 -1.72402 5.54211 154 153 159 0.366317 2 1766 3 1052 4 930 5 873
4286 0.310446 -1.71934 5.56352 105 104 109 0.25185 2 1797 3 1058 4 923 5 864
5388 3.77768 -0.0160196 5.52226 203 199 198 1.18484 2 11136 3 8179 7 8016 6 5521
4287 0.310446 -1.71934 5.56352 105 104 109 0.25185 2 1798 3 1059 4 924 5 865
5670 0.718595 -2.20535 5.34657 192 166 177 0.961466 2 5664 3 732 7 511
4945 2.20623 0.81498 5.9643 186 190 188 0.41097 2 7068 3 5177 4 2876 5 2731
4288 0.623096 -1.72603 5.50761 116 112 116 0.361492 2 1730 3 1060 4 939 5 885
6695 0.193776 -1.49984 5.63181 146 141 147 0.357292 2 2163 4 1121 5 1064
5462 -0.800109 0.813698 6.35696 126 129 123 1.18878 2 11207 3 8817 7 8392 4 9157 5 9193
4289 0.204281 -1.69198 5.58035 127 127 137 0.419833 2 1842 3 1087 7 799
5971 3.08932 -2.73105 4.89834 162 162 164 1.0528 7 8910 6 6464
4290 0.204281 -1.69198 5.58035 127 127 137 0.419833 2 1843 3 1088 7 800
4949 0.195266 0.611332 6.17523 61 79 103 0.327457 2 6985 3 5188 7 4948
4292 1.9335 -1.70284 5.34758 187 169 23 0.385104 1 1542 3 1104 7 806
4293 0.264751 -1.64788 5.58705 102 101 117 0.218414 2 1907 3 1109 7 817 4 962 5 923
6692 0.630079 -1.60443 5.53528 149 149 147 0.148896 2 1971 4 1028 5 1000
4294 0.26479 -1.64784 5.5867 102 101 117 0.153252 2 1908 3 1110 7 818 5 924
5669 0.718595 -2.20535 5.34657 192 166 177 0.961466 2 5663 3 731 7 510
5460 -0.155368 0.488771 6.19508 190 190 188 1.49076 2 11525 3 8792 7 8579 6 5077
4295 0.380179 -1.65092 5.56919 127 122 126 0.359041 2 1895 3 1111 7 819
5678 0.195795 -2.14057 5.4688 127 116 114 0.542516 2 1400 3 777 4 3971
4953 0.542436 0.727993 6.16799 162 166 160 0.709755 2 7049 3 5205 7 1925 4 2962 5 2927
4296 0.380179 -1.65092 5.56919 127 122 126 0.359041 2 1896 3 1112 7 820
5470 -1.44175 -1.14495 5.93628 140 136 138 0.821055 2 11444 3 8900 4 9219
4297 0.563467 -1.65296 5.53105 152 150 156 0.65967 2 1880 3 1117 4 972 5 935
6696 0.378315 -1.50464 5.60601 177 173 169 0.0700664 2 2140 4 1128 5 1075
5979 -0.901167 2.8137 4.81832 172 146 109 0.716335 2 9395 3 7847
4298 0.595071 -1.65345 5.52646 137 137 147 0.169621 2 1875 3 1120 4 975 5 937
7512 0.754287 0.497641 6.06616 191 192 187 0.197852 1 9489 6 5084 8 4411
4299 0.219906 -1.64608 5.59179 92 93 98 0.322671 2 1917 3 1123 7 815 4 960
4957 3.23407 1.08729 5.90874 129 136 135 0.591751 1 8966 3 5220 7 5065 6 4543
4300 0.32497 -1.64943 5.58052 83 83 81 0.187095 2 1900 3 1125 4 967
7506 -2.86213 -0.129537 6.36517 29 24 30 1.44602 1 9407 6 5001 8 847
6691 1.37617 -1.6543 5.43559 196 192 189 0.176995 1 1675 4 1018 5 1002
4301 0.32497 -1.64943 5.58052 83 83 81 0.187095 2 1899 3 1126 4 966
5677 2.20453 -2.26339 5.16911 133 106 95 0.268292 1 934 3 776 4 757
5468 -1.49327 -1.23745 5.89817 37 34 25 0.883504 4 9350 6 5396 1 9801 8 4280
4303 0.54108 -1.64126 5.54124 183 185 184 0.539425 2 1902 3 1142 7 834
5686 1.2217 -2.11032 5.33831 30 31 39 0.53898 2 1399 3 836 4 774
5025 1.71912 -1.54685 5.40097 164 160 157 0.659497 1 7419 3 6144 7 6214 6 2912
4304 0.54108 -1.64126 5.54124 183 185 184 0.539425 2 1901 3 1143 7 835
6711 -0.0638788 -1.29242 5.72466 26 23 67 0.175531 3 1516 4 1307 5 1259
5542 0.114458 0.0769914 6.00256 189 187 188 1.40881 2 12160 3 9356 7 9026 5 9758
4305 0.588811 -1.6411 5.53069 184 184 186 0.525231 1 1780 3 1146 7 837 4 4211
4307 0.190076 -1.63089 5.59393 152 152 153 0.236991 2 1943 3 1149 7 840
5029 -1.08144 -1.40214 5.81812 118 113 116 1.06688 2 8371 3 6162 7 4337 4 7226
4308 0.293243 -1.63564 5.58551 155 155 158 0.151094 2 1940 3 1151 4 4200 5 3928
6708 -0.689786 -1.33591 5.77974 57 56 63 0.396053 3 1475 4 1275 5 4250
4310 0.367689 -1.63997 5.57836 159 158 163 0.122712 2 1926 3 1153 4 977
5685 0.621248 -2.04814 5.35073 180 180 180 0.337035 2 5767 3 832 7 606
5540 1.79432 -0.559619 5.66555 9 31 49 0.931044 1 10866 2 12194 3 9352 7 9062 6 6484
4311 0.471655 -1.64027 5.55761 176 178 177 0.318969 2 1920 3 1157 4 4204
5694 1.63424 -1.9342 5.32968 180 143 42 0.530021 2 5823 3 911 7 665
5033 1.57846 -1.37401 5.49778 95 96 97 0.920411 2 8364 3 6178 7 4354 4 6212
4312 0.471831 -1.64035 5.55843 176 178 177 0.391632 2 1921 3 1158 4 4205 5 3942
6712 -0.0638788 -1.29242 5.72466 26 23 67 0.175531 3 1517 4 1308 5 1260
6059 -1.11446 -1.55554 5.77653 83 78 85 1.07023 3 4348 7 878 4 6089 5 6007
4314 0.331908 -1.62545 5.58486 98 96 109 0.671952 1 1842 3 1174 7 849 4 4215 5 954
7592 -0.813407 -1.70861 5.71004 5 15 31 1.7327 1 5454 6 602 2 5948 3 6081 7 4234 4 7155 5 7258
4315 0.331908 -1.62545 5.58486 98 96 109 0.671952 1 1843 3 1175 7 850 4 4216 5 955
5037 -0.917141 -1.31962 5.8269 140 138 138 0.8822 2 8388 3 6200 7 6251 4 8148 5 8258
4316 0.144758 -1.61594 5.6018 95 92 100 0.678341 1 1886 2 1976 3 1176
7586 2.7576 -1.98165 5.1668 164 166 165 1.17302 2 9655 1 8477 3 6018 7 6143 6 4088 4 6037 5 3816
6707 0.640299 -1.38207 5.58193 164 163 162 0.283767 3 1436 4 1259 5 1193
4317 0.144758 -1.61594 5.6018 95 92 100 0.678341 1 1885 2 1977 3 1177
4318 0.137161 -1.60181 5.60295 155 155 155 0.32826 2 2007 3 1186 4 997
5693 1.40871 -1.94729 5.35748 66 70 78 0.442871 1 1322 3 902 7 657
4319 0.158811 -1.60548 5.60212 153 153 156 0.872472 1 1915 3 1187 4 4225 5 3964
4977 0.561906 1.11794 6.25959 26 58 117 0.875604 2 4017 3 5301 7 2007
4320 0.158811 -1.60548 5.60212 153 153 156 0.872472 1 1914 3 1188 4 4226 5 3965
5494 1.36887 -1.79165 5.40101 22 22 22 0.531381 1 10563 3 9057 4 9062 5 9240 6 6005 8 4930
4321 0.23921 -1.60906 5.59939 157 157 159 0.573986 1 1892 3 1189 7 861 4 4229 5 3974
6003 -0.358098 -2.67614 5.38362 134 138 141 1.17937 2 5373 7 181 4 5763 5 5635
4322 0.181868 -1.59503 5.60872 127 126 131 0.283201 2 2013 3 1196 4 1008
4981 0.72469 1.18518 6.25622 184 196 210 0.609182 2 7178 3 5310 7 5106
4324 0.410131 -1.60132 5.57743 101 95 98 0.184024 2 1999 3 1199 4 1021 5 991
4325 0.410131 -1.60132 5.57743 101 95 98 0.184024 2 2000 3 1200 4 1022 5 992
4326 0.492704 -1.60098 5.56081 106 104 107 0.278431 2 1990 3 1201 7 875
5492 -0.537754 -1.80963 5.64441 145 144 142 0.55714 2 11641 3 9054 7 8662
4327 0.492527 -1.60047 5.55884 106 104 107 0.323898 2 1991 3 1202 7 876 4 4244
4985 0.687773 1.27097 6.28571 68 68 76 0.565806 2 7203 3 5319 4 5406
4328 0.335287 -1.60006 5.59358 116 111 118 0.437013 2 2008 3 1207 4 1014
5502 2.25454 -0.187719 5.70754 201 185 169 1.84447 2 12007 3 9103 7 8850
4329 0.33537 -1.60049 5.59398 116 111 118 0.463484 2 2009 3 1208 4 1015 5 985
6011 -0.337528 -2.55715 5.40954 136 138 143 1.37205 2 5481 7 292 4 5794 5 5659
4330 1.73556 -1.61773 5.38238 165 161 160 0.685336 1 1691 3 1209 7 880 2 1886
7544 2.38984 -3.19531 4.877 164 162 165 1.98578 1 10534 3 9017 6 6165
4331 0.184334 -1.58309 5.61106 160 158 159 0.473506 2 6023 3 1213 7 882 4 4247 5 995
4989 0.39732 1.27156 6.32423 60 55 52 0.675728 2 7197 3 5329 7 5119 4 5431
4332 0.347154 -1.58743 5.58865 160 159 164 0.456584 2 2016 3 1215 4 4254 5 4004
7538 0.316263 -1.7313 5.57343 146 145 150 0.705581 1 10378 7 8668 6 6010
4333 1.45945 -1.57402 5.44335 29 27 6 0.35517 1 1787 3 1235 4 1098
5500 1.41844 -0.363716 5.77772 152 79 76 0.730378 1 10602 3 9098 7 8843 4 9251 6 6244
4335 0.237255 -1.52546 5.61892 128 127 130 0.344704 2 2108 3 1249 4 1084
4929 1.85893 0.488171 5.93503 201 198 191 0.996833 1 6414 3 5096 7 4816 6 1523
4336 0.33094 -1.52765 5.60569 94 94 98 0.150515 2 2094 3 1250 4 1090
5446 2.79701 -1.37956 5.29955 52 140 160 0.364431 2 11424 3 8714 7 8301
4337 0.33094 -1.52765 5.60569 94 94 98 0.150515 2 2093 3 1251 4 1089
5955 1.1871 -2.78777 5.14841 27 23 40 0.639885 2 11801 3 8843 6 5959
4338 -1.20238 -1.48205 5.80504 134 128 132 1.09745 2 2288 3 1254 7 912 4 4268
4339 0.430633 -1.51726 5.59095 175 175 175 0.224602 2 2110 3 1255 7 924 4 4299 5 4085
4933 3.24725 0.656768 5.78898 194 212 231 0.89393 2 8986 3 5111 7 4877 6 3424
4340 0.432321 -1.51826 5.59289 175 175 175 0.862529 1 2006 2 2111 3 1256 7 925 4 4298 5 4084
4342 0.184908 -1.51152 5.63003 154 154 155 0.522891 2 2135 3 1260 7 931 4 4292
5444 3.96495 -1.4652 5.13947 46 45 50 1.84153 2 11835 3 8709 7 8513 8 5133 4 8138
4343 0.244865 -1.51412 5.61885 153 155 157 0.591575 2 2124 3 1262 4 1099
4937 -1.0407 0.236127 6.23982 19 8 3 0.765126 2 6877 3 5136 7 1810 4 6744 5 6885
4344 0.409454 -1.5181 5.60047 174 174 176 0.36737 2 2114 3 1265 7 922
5454 1.11608 -0.475943 5.78244 40 38 41 1.22293 1 10205 2 11485 3 8756 7 8338 1 9843 4 8661 6 5466
4345 0.409454 -1.5181 5.60047 174 174 176 0.36737 2 2115 3 1266 7 923
5963 0.21574 -2.50487 5.3558 99 101 105 0.747487 2 11812 3 9030 7 8648
4346 2.9554 -1.55687 5.24219 45 110 137 0.38222 2 5979 3 1268 7 936
7496 -0.432281 -3.08622 5.31082 149 147 150 0.632598 2 11292 6 4750
4347 1.64371 -1.52972 5.41868 90 80 89 0.369614 1 1847 3 1270 4 1152 5 1099
4941 2.44086 0.669243 5.90535 178 184 172 0.949682 2 8994 3 5161 7 4918 4 5202 5 5134
4348 -1.03439 -1.47945 5.7952 36 31 35 0.803711 2 2292 3 1277 4 4274
4349 1.66581 -1.52626 5.41482 140 130 139 0.64945 2 6038 3 1281 7 945 6 663 4 4336
4350 0.409705 -1.50417 5.59969 114 112 117 0.154818 2 2142 3 1285 4 1135 5 1077
5452 0.397498 -0.684733 5.75605 15 15 15 0.826495 2 11700 3 8744 7 8538
4351 0.604653 -1.50789 5.56398 114 111 110 0.637773 2 2122 3 1287 4 1140 1 2003 5 4122
4352 0.439001 -1.50501 5.59667 109 108 123 0.457358 2 2137 3 1301 7 950 1 2018 4 4319 5 4112
4784 -0.0711391 -1.00372 5.8007 174 173 178 0.341344 2 6303 3 4618 7 1223 4 6320 5 6342
4353 0.595488 -1.49642 5.56868 184 185 188 0.302172 1 2016 3 1307 4 4332 5 4141
7357 -1.95155 -1.28818 5.97077 57 57 45 0.359529 1 7486 5 9058 6 2942
4354 0.428912 -1.49425 5.60167 175 176 178 0.413986 2 2164 3 1308 4 4328 1 2028 5 4138
5810 2.9044 -1.94558 5.13261 172 169 162 0.768123 1 7297 3 4218 7 4170 4 4124 5 833 6 2819
4355 0.468408 -1.494 5.5953 179 185 185 0.380753 2 2166 3 1310 7 956 4 4330
5303 -1.06423 -0.443132 6.08311 158 120 52 1.04853 2 8722 3 7563 7 6489 4 8334 5 8452
4356 0.486278 -1.49327 5.58968 180 181 183 0.392132 2 2154 3 1312 7 958
4788 3.12377 -0.949618 5.38539 170 168 169 0.534976 2 8469 3 4625 7 4483
4357 2.93661 -1.52842 5.25712 23 88 114 1.0255 2 6012 3 1323 4 4392 5 1158 8 436
5297 0.0645582 -0.514267 5.88843 145 145 147 0.80461 2 9933 3 7529 7 6456 4 8273 5 8411
4358 0.279397 -1.47679 5.62554 103 104 115 0.0615921 2 2225 3 1336 4 1161
4359 0.279397 -1.47679 5.62554 103 104 115 0.0615921 2 2226 3 1337 4 1162
7355 2.3295 -1.61364 5.31694 189 195 192 1.0244 4 9073 5 9041
4360 0.305317 -1.47753 5.62198 94 90 105 0.0778771 2 2227 3 1338 4 1164
4792 0.166794 -0.967014 5.75593 213 208 212 0.35946 2 6323 3 4638 4 4615
4361 0.305317 -1.47753 5.62198 94 90 105 0.0778771 2 2228 3 1339 4 1163
4362 0.172741 -1.47111 5.63582 114 113 111 0.376576 2 2249 3 1346 7 972 4 4337 5 4148
5818 0.362246 2.58798 4.60447 178 154 119 0.196671 2 7489 3 5534
4363 0.625973 -1.47123 5.56632 184 186 186 0.469194 1 2037 3 1347 7 980 4 4366
5311 -1.43418 -0.304929 6.11977 15 12 21 0.779364 2 6697 3 7585 4 8353 5 8476
4364 0.466956 -1.46864 5.59794 183 185 185 0.450934 2 2236 3 1350 7 982 4 4357 5 4171
4796 -0.973448 -0.983279 5.9263 112 111 111 0.846065 2 2746 3 4653 7 1246 5 6379
4365 0.584922 -1.468 5.57334 186 189 188 0.334503 2 6093 3 1351 7 987 4 4363
5305 -0.434726 -0.37231 5.96859 109 105 106 1.18645 1 7750 3 7571 7 6508 2 8752 4 7568 5 6629 6 3170 8 819
4366 0.151162 -1.45865 5.64 155 157 154 0.303279 2 2274 3 1363 7 997 4 4345
4367 0.193107 -1.4621 5.63828 155 156 160 0.542588 1 2137 3 1365 4 4347 5 4161
4736 -1.13025 -1.39732 5.81859 143 138 144 1.25055 2 2449 3 4464 7 1029
4369 0.170805 -1.45622 5.64006 155 154 160 0.470159 2 6103 3 1369 7 1009
7309 2.93156 -0.342756 5.5736 205 204 199 0.52925 4 7482 5 7644 8 3807
4370 0.553132 -1.45882 5.58681 146 140 152 0.198052 2 2259 3 1370 4 1201 5 1137
5762 -0.252702 -2.41821 5.43912 142 142 144 1.08566 2 1199 3 3984 7 399 4 3824 5 3447
4371 0.553132 -1.45882 5.58681 146 140 152 0.198052 2 2260 3 1371 4 1202 5 1136
5255 -1.13603 -1.17452 5.88033 155 146 149 1.39237 2 8429 3 7400 7 6277 4 7299 5 8288 6 770
4372 0.247659 -1.45289 5.63836 78 75 86 0.27704 2 2293 3 1373 7 1011 4 4377
4740 0.602353 -1.39768 5.59031 187 189 189 0.354062 2 6137 3 4478 7 1049
4373 0.14154 -1.44829 5.64441 114 113 120 0.607794 1 2168 3 1376 4 4376
5249 1.36677 -1.57246 5.46063 42 33 35 0.532067 2 9745 3 7364 7 6211 4 7216 5 6099
4374 0.158351 -1.44713 5.64465 89 88 102 0.0734738 2 2317 3 1378 4 1185
4375 0.158351 -1.44713 5.64465 89 88 102 0.0734738 2 2318 3 1379 4 1186
7307 2.05564 -0.610732 5.61943 202 186 169 0.769099 4 8228 5 7611 8 4712
4376 0.520192 -1.4471 5.59593 187 189 190 0.352798 2 2286 3 1381 7 1013 4 4394
4744 -1.12567 -1.33496 5.84012 125 120 121 1.05318 2 6196 3 4488 7 1074 4 6185
4377 0.538919 -1.44454 5.59 189 190 192 0.289015 2 2294 3 1383 7 1014 4 4399 5 4199
5770 1.04922 -2.43677 5.28484 97 40 33 0.915514 2 8045 3 4010 7 4003 4 3923 5 3543
4379 0.480227 -1.43163 5.60694 114 113 110 0.263723 2 2328 3 1393 7 1033 4 1238 5 1162
5263 1.1015 -0.875618 5.67627 195 102 95 0.700188 1 8645 3 7431 7 7330 4 7383 5 7557 6 4235 8 2563
4380 0.480227 -1.43163 5.60694 114 113 110 0.263723 2 2327 3 1394 7 1032 4 1237 5 1161
4748 -0.962796 -1.33725 5.82991 138 136 139 0.820738 2 2506 3 4496 7 1080 4 6192 5 6182
4381 0.402946 -1.43054 5.62046 139 138 136 0.14508 2 2331 3 1395 4 1235
5257 -0.824131 -1.13727 5.85738 58 2 8 0.594963 2 8432 3 7409 7 6286 4 8181
4382 0.58597 -1.4195 5.58449 189 191 191 0.298278 2 2336 3 1400 7 1038
4384 0.630741 -1.42074 5.57631 191 192 194 0.35312 2 2333 3 1403 4 4419 1 2162
4386 0.486095 -1.41963 5.6115 184 185 187 0.395682 1 2173 3 1407 7 1043 4 4415 5 4220
7117 2.17167 0.849309 5.97388 1 57 116 0.70116 3 8259 4 8415 5 7818
5714 0.147648 -2.76029 5.31017 143 144 146 0.803207 2 5308 3 3797 7 160 4 3659
4387 0.547897 -1.40519 5.60057 195 195 197 0.959488 2 2357 3 1413 7 1047
7110 -0.438825 -0.173757 6.02964 50 75 60 1.27207 3 8200 4 8346 7 8010
5207 -1.37111 0.63471 6.38789 1 28 71 0.898233 2 7002 3 6809 7 4993
4388 2.8029 -1.42601 5.3159 154 192 200 1.41052 1 5483 3 1415 4 1269 5 1209 6 717 8 480
6087 -1.06053 -1.33725 5.83795 51 50 56 0.578294 3 4490 7 1076 4 6187
4692 -1.18787 -1.55496 5.78137 46 40 44 2.01936 2 6067 3 4345 7 872 4 6083 7 869
4389 2.90202 -1.42017 5.29385 136 165 175 0.893059 1 5481 3 1417 4 1272 5 1214 6 719 8 476
6080 3.89287 -1.49606 5.14445 201 199 195 0.566785 2 8334 7 1025 6 2930
5201 -1.42943 0.613722 6.39234 27 38 64 0.646571 2 6987 3 6790 4 7772 5 7901
4390 0.38602 -1.39291 5.63358 176 176 178 0.455561 2 2400 3 1418 7 1052 1 2204 4 4433
7105 -0.413342 -0.400153 5.9667 145 145 145 0.24022 3 7564 4 8321 6 3159
4391 0.406422 -1.39165 5.63011 182 186 185 0.301217 2 6152 3 1420 7 1061
7259 -0.554801 -0.107419 6.01915 193 192 190 0.954793 4 6629 5 4990
7114 -0.924405 -0.0571453 6.15398 165 130 61 0.407302 3 7623 4 8386 5 8510
4392 0.441811 -1.39419 5.62501 186 187 189 0.34041 2 2393 3 1421 7 1055 4 4434
4696 0.258563 -1.56412 5.61038 160 157 161 0.848634 2 6039 3 4353 4 4265 5 4017
4393 0.441981 -1.39488 5.62705 186 187 189 0.299474 2 2394 3 1422 7 1056
4394 0.615667 -1.38472 5.58813 195 191 191 0.577779 2 6146 3 1426 7 1064 4 4439 5 4232
6095 -0.816318 -1.2928 5.81999 134 132 137 0.878445 2 2574 7 1115 5 4271
4700 1.42342 -1.57093 5.45104 7 16 5 0.888723 1 1797 3 4360 7 4293 4 1100
4397 0.640976 -1.38236 5.58243 143 141 142 0.278219 2 2402 3 1435 4 1258 5 1194
6088 0.642902 -1.35888 5.58652 142 143 147 0.459776 2 2440 7 1079 5 1218
5209 -1.32361 0.657147 6.39333 114 132 153 0.843968 2 7020 3 6821 7 4994 4 7775 5 7905
4398 0.465203 -1.38261 5.62769 128 127 124 0.530988 2 2427 3 1438 4 4445 5 4236
4399 1.74546 -1.3866 5.43979 188 184 184 0.371684 1 2084 2 2341 3 1443
4768 -1.51941 -1.19307 5.93232 2 2 7 1.04257 2 2656 3 4564 4 6256 5 7466
4401 0.454213 -1.37011 5.63049 185 186 190 0.620587 1 2224 2 2439 3 1450 7 1070 4 4450
7341 -1.74407 -0.893208 6.05005 73 74 71 0.244528 1 5745 5 8812 6 837
4402 0.508584 -1.36896 5.6136 185 187 186 0.300623 2 2437 3 1452 7 1073 4 4452 5 4247
7133 0.0644994 -0.117522 5.98025 94 36 42 0.515874 3 8541 4 8679 5 8851
5794 2.37633 -2.15526 5.13926 158 162 164 0.542243 2 8122 3 4139 7 593 4 790 5 701
4403 0.392698 -1.35558 5.63966 112 108 109 0.433969 2 2465 3 1459 4 1278
7126 -1.50415 -1.25824 5.91205 34 31 21 1.93417 3 8070 4 8613 5 8266
5287 2.17938 -0.473358 5.64603 197 181 168 0.581982 1 9377 3 7497 7 7397 6 4328
4404 0.392698 -1.35558 5.63966 112 108 109 0.433969 2 2464 3 1460 4 1277
6103 -1.13104 -1.15385 5.88591 76 29 42 0.782471 3 4582 7 1193 4 6277
4772 -0.99238 -1.13058 5.88813 61 58 66 0.908268 2 2686 3 4589 7 1197
4405 -1.14851 -1.3351 5.847 149 144 149 1.38848 2 2515 3 1465 4 6182 5 6177
5281 1.28143 -0.537228 5.75062 195 193 193 1.53974 1 8732 3 7487 7 7385 4 7460 6 4314 8 2658
4406 -1.14865 -1.3338 5.84436 149 144 149 1.28054 2 2516 3 1466 4 6183
7121 -1.48416 -1.77958 5.75647 117 110 104 0.296599 3 8004 4 8561 5 8687
4407 -1.031 -1.33612 5.83705 76 67 70 0.878464 2 2514 3 1471 7 1077 4 4446 5 4244
7339 -1.46308 -1.05066 5.97193 26 24 25 0.479607 1 7518 5 8790 6 2965
7130 1.38884 -0.350955 5.776 161 96 92 0.676922 1 9847 4 8670 6 5478
4408 -0.942453 -1.33785 5.82872 135 135 137 0.571514 2 2504 3 1472 4 6190
4776 -0.014645 -1.07995 5.76678 61 59 60 0.482603 2 2695 3 4599 4 4572
4409 -0.414892 -1.30981 5.67845 65 64 98 0.462958 2 6177 3 1478 7 1092
5802 2.62152 -2.03391 5.18392 54 123 146 0.654915 1 7275 3 4172 7 4135 6 2784
4411 2.44728 -1.34351 5.37094 148 181 191 0.442801 2 6153 3 1484 4 1299
5295 -0.271656 -0.531523 5.94171 98 98 100 0.734866 2 9931 3 7527 7 7387 4 8278 5 8415 6 4282
4412 -0.931036 -1.30201 5.83286 132 130 135 0.994717 2 2552 3 1497 7 1109 5 6203
6111 -0.904256 -0.984717 5.91397 103 112 118 0.35807 3 1676 7 1248 5 4490
4780 3.53817 -0.981327 5.32536 103 104 106 1.04497 1 7503 3 4608 7 4469 6 3030
4413 -1.15163 -1.29657 5.85038 53 45 53 0.925825 2 2567 3 1502 7 1100 4 4462
6104 -0.119445 -1.07849 5.78856 19 19 21 0.592763 1 2556 7 1202 5 4429 4 4576
5289 0.278263 -0.534901 5.80829 77 76 76 0.748577 2 9919 3 7503 4 8256
4414 -0.826756 -1.30274 5.81928 39 37 45 0.599214 2 2546 3 1505 7 1113 4 4468 5 6209
4848 1.77071 -0.544845 5.65458 98 152 188 0.699758 2 8666 3 4819 7 1476 4 6451 5 4592
4417 1.64984 -1.30092 5.47746 184 184 179 0.5463 1 2238 3 1515 7 1128 4 1313
7421 3.71468 -1.80095 5.08709 55 69 104 1.33521 1 5236 6 549 8 321
4418 -0.13756 -1.28778 5.73081 32 28 79 0.846168 2 6218 3 1521 7 1120 4 4478 5 1258
4419 -0.13756 -1.28778 5.73081 32 28 79 0.846168 2 6219 3 1522 7 1121 4 4477 5 1257
5367 -1.43099 -1.03293 5.97893 134 133 133 1.6019 2 9810 3 8106 4 8880 5 8792
4420 -0.125459 -1.27779 5.73528 144 149 147 0.143076 2 2578 3 1530 4 1315
4852 1.77722 -0.49381 5.66911 133 168 184 0.816482 2 8701 3 4842 7 4666 4 1800
4421 -0.125459 -1.27779 5.73528 144 149 147 0.143076 2 2577 3 1531 4 1316
5361 -0.876083 -1.13696 5.86614 59 0 8 0.780633 2 9793 3 8094 7 7304 4 8625 5 8778
4422 1.9214 -1.27259 5.45088 140 130 140 0.331266 2 6193 3 1538 7 1146
4423 1.9214 -1.27259 5.45088 140 130 140 0.331266 2 6194 3 1539 7 1147
7419 1.37488 -1.92221 5.36716 173 135 60 0.905151 1 7345 5 762 6 512
4424 -0.120365 -1.26299 5.74057 18 22 58 0.355656 2 2585 3 1540 7 1134
4856 -0.339097 -0.529502 5.9402 148 146 149 0.291352 1 5891 2 6609 3 4857
4425 1.65186 -1.2519 5.49068 190 187 184 0.44347 2 6211 3 1548 7 1165
4426 -0.150085 -1.25252 5.7381 156 157 159 1.61869 2 6235 3 1553 7 1141
5882 1.63323 -2.51136 5.18071 48 44 32 1.2396 1 9174 3 7220 7 7176 6 4794 8 2282
4427 -0.150085 -1.25252 5.7381 156 157 159 1.61869 2 6236 3 1554 7 1142
4428 -0.108272 -1.24556 5.74215 30 31 75 0.399262 2 2595 3 1558 4 1348
4860 -0.950744 -0.545429 6.03637 90 56 18 0.447098 2 6590 3 4863 4 6528 5 6605
4429 -0.108272 -1.24556 5.74215 30 31 75 0.399262 2 2594 3 1559 4 1349
5369 -1.20681 -0.984827 5.9322 8 21 37 0.861231 2 9817 3 8108 4 8631
4430 -1.09433 -1.23996 5.86357 50 67 93 0.933038 2 2605 3 1561 7 1139 4 4493 5 4306
4431 2.38241 -1.23672 5.38865 155 181 195 1.53607 1 5565 3 1566 6 782 8 535
5158 0.259352 0.0531471 5.92986 85 78 84 0.979018 2 6846 3 6625 7 4786 4 6642 5 6718
4800 -1.13681 -0.944832 5.94164 125 134 142 0.707861 2 2769 3 4674 7 1273 4 6373
4433 -0.20032 -1.22042 5.75251 82 116 153 0.987831 2 2610 3 1584 4 1387
7373 -1.48408 -0.890355 6.01235 172 167 165 0.161831 1 8653 5 9304 6 4210
5667 1.5629 -2.33611 5.21962 9 17 30 0.309527 1 5042 3 709 6 309
4434 -1.46132 -1.21308 5.91853 132 130 127 0.810418 2 2637 3 1587 4 6251 5 6255
5826 -0.192647 -2.79353 5.33333 141 141 143 1.975 2 7966 3 5871 7 3911
4435 -0.0949182 -1.21536 5.74968 154 158 161 0.15055 2 2616 3 1588 4 1398
5319 -1.509 -0.0248537 6.18957 150 148 147 1.25666 2 8821 3 7634 4 8717 5 8900
4436 -0.164154 -1.21151 5.75525 99 122 114 0.264291 2 2621 3 1589 7 1176 4 4526 5 1342
4804 -0.0130505 -0.902035 5.80362 60 60 60 1.32897 2 6367 3 4684 7 1303 4 6369
4437 0.00649263 -1.19414 5.73441 155 158 163 0.32179 2 2629 3 1590 4 1412
5313 2.47705 0.0620472 5.75603 109 110 109 1.2161 2 10052 3 7595 7 6578 4 6562 5 6636 6 3302
4438 -0.0612806 -1.1782 5.75219 150 153 154 0.50776 2 2648 3 1592 4 4542 5 1364
5156 -0.0787826 -0.0388002 6.04443 31 57 32 0.416981 2 6826 3 6610 7 4767 4 7609 5 6707
4439 -1.15252 -1.15265 5.88762 93 32 47 0.936982 2 2680 3 1600 7 1192 4 4554
7371 -0.192368 -0.860774 5.85359 149 149 149 0.626185 4 9094 5 9297 6 5830
4649 1.96234 1.07303 6.07229 189 191 186 0.892145 1 6619 3 2659 7 1982 6 1698
4440 -1.52757 -1.14953 5.94526 123 121 126 1.01058 2 2682 3 1601 4 6279 5 6287
5166 3.14107 0.677188 5.81194 32 79 128 0.770827 1 8907 3 6657 7 6624 6 4494
4808 1.8547 -0.842258 5.58085 133 28 32 0.58953 2 8531 3 4699 7 4532 6 914
4441 3.33453 -1.0956 5.28448 214 212 212 0.573637 2 8423 3 1604 7 4402 1 8609 6 2990
5834 2.9033 -2.79039 4.94467 166 164 167 0.545471 1 9115 3 5910 6 3953
4443 -1.16322 -1.11985 5.89973 146 144 148 1.36146 2 2689 3 1617 4 4568 5 6299
5327 3.71456 1.05861 5.82612 86 85 84 1.23741 2 11222 3 7674 7 7512 4 5240 5 5194
4653 0.588127 1.16687 6.27171 24 64 113 0.96803 2 4022 3 2705 7 2019
4444 -1.09866 -1.12041 5.89695 137 142 137 0.927245 2 2690 3 1620 4 4569 5 4412
7202 2.58696 -1.54955 5.30899 84 147 164 0.393493 4 4360 5 1119 8 2452
4812 -0.404846 -0.860214 5.8305 157 155 156 0.902996 2 6401 3 4707 7 4511
4445 0.155209 -1.00543 5.74872 130 116 130 0.435741 2 2723 3 1639 4 4596 1 2578 5 6339
5321 -0.0031059 0.145451 6.07026 190 186 180 0.600237 1 7835 3 7640 7 7462 4 7645 5 7783 6 3284
4446 -0.356684 -0.984572 5.80157 95 91 105 0.484423 2 2727 3 1647 7 1232
4448 -0.469077 -0.970709 5.78091 78 70 82 0.397426 2 2731 3 1657 7 1237
4752 -1.06273 -1.30042 5.84986 31 24 32 1.19762 2 2563 3 4512 7 1103
4449 -0.469077 -0.970709 5.78091 78 70 82 0.397426 2 2732 3 1658 7 1238
7325 0.0854648 -0.456964 5.90175 126 124 126 0.453061 1 7720 5 8419 6 3151
4450 -0.520598 -0.963392 5.76919 91 77 90 0.398612 2 2733 3 1659 7 1242
5778 1.61381 -2.40459 5.21131 83 78 48 0.616667 2 8052 3 4043 7 4022
4451 -0.520598 -0.963392 5.76919 91 77 90 0.398612 2 2734 3 1660 7 1243
5271 0.619944 -0.784693 5.76742 205 155 47 1.17515 2 9850 3 7450 7 6354 1 7578 4 7420 5 7598 6 3040
4452 -0.932139 -0.984531 5.91853 88 87 92 0.701899 2 2738 3 1668 4 4633 5 4488
4756 -0.805452 -1.30367 5.81653 86 81 85 1.00279 2 2548 3 4518 4 6223 5 6207
4453 -0.932071 -0.984635 5.91998 88 87 92 0.667612 2 2739 3 1669 4 4634
5265 0.0520524 -0.884175 5.80569 57 57 57 0.832332 2 9830 3 7434 7 6323 1 7553 5 8333
4454 -1.10638 -0.980657 5.93127 68 76 75 0.712819 2 2744 3 1682 7 1244
4455 -0.244871 -0.957695 5.82254 98 99 101 0.486983 2 2756 3 1690 7 1268
